ply
format ascii 1.0
element vertex 760
property float x
property float y
property float z
property uchar red
property uchar green
property uchar blue
end_header
0.25519391894340515 0.8342859745025635 25.35903549194336 0 0 0
0.26132339239120483 0.8396338224411011 25.365724563598633 0 0 0
-0.9147090911865234 0.7944346070289612 26.91093635559082 0 0 0
-0.9482030868530273 0.7845767140388489 26.693445205688477 0 0 0
0.5629520416259766 0.855303168296814 24.904932022094727 0 0 0
0.6651107668876648 0.8589670062065125 24.732229232788086 0 0 0
-1.1844086647033691 0.7074111700057983 11.591065406799316 0 0 0
0.5897531509399414 0.8611288666725159 24.809223175048828 0 0 0
-0.9561586380004883 0.7964096665382385 26.689353942871094 0 0 0
0.8629705309867859 0.8412988185882568 24.064077377319336 0 0 0
-0.9088342785835266 0.8063297867774963 26.981327056884766 0 0 0
0.04210435971617699 0.8272043466567993 25.688488006591797 0 0 0
-1.1099693775177002 0.8200502395629883 27.072654724121094 0 0 0
-1.1238659620285034 0.7678315043449402 26.794374465942383 0 0 0
-1.3788375854492188 0.7476550936698914 26.798175811767578 0 0 0
0.11026845127344131 0.8252965807914734 25.587886810302734 0 0 0
-1.1827524900436401 0.7067249417304993 11.59057903289795 0 0 0
-0.21406932175159454 0.8138898611068726 26.04425048828125 0 0 0
-1.4422199726104736 0.7543192505836487 26.941965103149414 0 0 0
-1.5050238370895386 0.7335779070854187 26.799144744873047 0 0 0
-0.2305249124765396 0.8350223302841187 26.19282341003418 0 0 0
-0.23300328850746155 0.8108605742454529 26.053773880004883 0 0 0
-0.9369770288467407 0.7949878573417664 26.762401580810547 0 0 0
0.6197099685668945 0.8694279193878174 24.781652450561523 0 0 0
0.09864920377731323 0.8212236166000366 25.59371566772461 0 0 0
0.9880571365356445 1.1527348756790161 22.61503028869629 0 0 0
0.7119522094726562 0.8719619512557983 24.627378463745117 0 0 0
0.7540637254714966 1.2826786041259766 23.0074405670166 0 0 0
0.10900463908910751 0.8200669884681702 25.59021759033203 0 0 0
0.7220504879951477 1.2753627300262451 23.037765502929688 0 0 0
0.6046534180641174 0.8569343686103821 24.79745864868164 0 0 0
-0.3003118336200714 0.8010146021842957 26.08615493774414 0 0 0
-0.34402626752853394 0.8031367063522339 26.23921775817871 0 0 0
-0.9702582359313965 0.7984217405319214 26.84081268310547 0 0 0
-0.5572465658187866 0.8240759372711182 26.604623794555664 0 0 0
-0.7199979424476624 0.7743368744850159 26.454864501953125 0 0 0
-0.14153218269348145 0.840336799621582 26.07572364807129 0 0 0
0.6049864292144775 0.8657304644584656 24.783334732055664 0 0 0
-0.3470001816749573 0.7930271029472351 26.096099853515625 0 0 0
1.0103631019592285 1.1163380146026611 22.667377471923828 0 0 0
0.7264633178710938 0.8632016181945801 24.603979110717773 0 0 0
0.05425291135907173 0.8551868796348572 25.82012176513672 0 0 0
-1.1749922037124634 0.7815760970115662 26.7910099029541 0 0 0
-0.35334524512290955 0.8354350328445435 26.38080406188965 0 0 0
0.7062807083129883 0.8769826889038086 24.622041702270508 0 0 0
0.7906244397163391 0.8778902888298035 24.409793853759766 0 0 0
-1.3304343223571777 0.7756162285804749 26.946815490722656 0 0 0
0.7571384310722351 1.260758399963379 22.881134033203125 0 0 0
-0.9454060196876526 0.8039279580116272 26.835159301757812 0 0 0
0.5849992632865906 0.8632159233093262 24.88457489013672 0 0 0
-0.33049139380455017 0.8383119106292725 26.38300323486328 0 0 0
-0.34632056951522827 0.837212324142456 26.389524459838867 0 0 0
0.7563742399215698 1.2624527215957642 22.944576263427734 0 0 0
-0.9519702792167664 0.825863242149353 26.990596771240234 0 0 0
0.5988465547561646 0.8620609641075134 24.78942108154297 0 0 0
0.6683232188224792 0.865365743637085 24.73987579345703 0 0 0
-0.1138196587562561 0.842176616191864 26.06167984008789 0 0 0
-1.3699544668197632 0.7741453647613525 26.9466552734375 0 0 0
0.7512608766555786 1.2588833570480347 22.958707809448242 0 0 0
-1.364580750465393 0.774590015411377 26.94658851623535 0 0 0
1.1099214553833008 0.8519627451896667 23.388879776000977 0 0 0
-1.1229044198989868 0.7917593121528625 26.85841941833496 0 0 0
-0.9387727379798889 0.8113096952438354 27.00825309753418 0 0 0
-0.9258142113685608 0.8072320818901062 26.831005096435547 0 0 0
-0.8237858414649963 0.8145633339881897 26.823274612426758 0 0 0
-0.7888085842132568 0.8183069825172424 26.843170166015625 0 0 0
-0.6002925038337708 0.8262733221054077 26.615999221801758 0 0 0
-0.7279908061027527 0.7871875762939453 26.51395606994629 0 0 0
-0.5357985496520996 0.8238515853881836 26.59832191467285 0 0 0
-0.09861943125724792 0.8479281663894653 26.03740882873535 0 0 0
0.7441505789756775 1.2555432319641113 22.965747833251953 0 0 0
0.3587858974933624 0.8639506697654724 25.42471694946289 0 0 0
0.09915905445814133 0.8452534675598145 25.72319221496582 0 0 0
0.6865835189819336 0.8633176684379578 24.5810546875 0 0 0
0.72823566198349 0.8678366541862488 24.613245010375977 0 0 0
-1.375428318977356 0.7754825353622437 26.945817947387695 0 0 0
-0.9133914709091187 0.8099786639213562 26.828018188476562 0 0 0
-0.8167420625686646 0.8168864250183105 26.821006774902344 0 0 0
-0.6183614730834961 0.5458571910858154 24.57602882385254 0 0 0
-0.01591506414115429 0.8555600047111511 26.007265090942383 0 0 0
0.25239700078964233 0.861725926399231 25.572452545166016 0 0 0
0.4172734320163727 0.8666605353355408 25.307743072509766 0 0 0
0.6803370118141174 0.886900782585144 24.65287208557129 0 0 0
0.6376345157623291 0.8670574426651001 24.766597747802734 0 0 0
0.6424403190612793 0.8673151731491089 24.762331008911133 0 0 0
-1.5080302953720093 0.7691485285758972 27.005212783813477 0 0 0
-1.2779297828674316 0.8144354224205017 27.156787872314453 0 0 0
-1.3343256711959839 0.7806681394577026 26.944265365600586 0 0 0
-1.151262879371643 0.8229159712791443 27.150358200073242 0 0 0
-1.3289495706558228 0.7811107635498047 26.944135665893555 0 0 0
-1.0976756811141968 0.8264322876930237 27.068939208984375 0 0 0
-0.989691436290741 0.8083308339118958 26.91461753845215 0 0 0
-0.3062945306301117 0.8452764749526978 26.370960235595703 0 0 0
0.9349895119667053 1.2241679430007935 22.5388126373291 0 0 0
-0.08338391780853271 0.8529060482978821 26.043073654174805 0 0 0
0.6440709829330444 0.8857323527336121 24.756834030151367 0 0 0
0.0011744981165975332 0.8584056496620178 25.997201919555664 0 0 0
0.1951816976070404 0.8628320693969727 25.67106819152832 0 0 0
-0.4195535182952881 0.6625337600708008 25.18185806274414 0 0 0
0.36304160952568054 0.8680611848831177 25.40852165222168 0 0 0
0.5974763631820679 0.8689185380935669 24.8726863861084 0 0 0
0.7211304306983948 0.868435263633728 24.548355102539062 0 0 0
0.5518919825553894 0.8836050629615784 24.895681381225586 0 0 0
-0.9764977693557739 0.8272776007652283 26.904705047607422 0 0 0
0.8756874799728394 0.8944686651229858 24.25175666809082 0 0 0
1.111859917640686 0.8823552131652832 23.569551467895508 0 0 0
-1.3324699401855469 0.8179485201835632 27.231130599975586 0 0 0
-1.4786245822906494 0.8080195188522339 27.216184616088867 0 0 0
0.7884948253631592 0.8843621015548706 24.410564422607422 0 0 0
-1.2981783151626587 0.8225878477096558 27.229625701904297 0 0 0
-1.2690812349319458 0.827595591545105 27.30500030517578 0 0 0
0.36834514141082764 0.8696330785751343 25.41632652282715 0 0 0
0.5094877481460571 0.8728987574577332 25.161771774291992 0 0 0
0.9885385036468506 1.1649097204208374 22.6765193939209 0 0 0
0.5979105830192566 0.8864184617996216 24.940532684326172 0 0 0
0.9803808927536011 1.158660888671875 22.559770584106445 0 0 0
0.5768688321113586 0.8852771520614624 24.958486557006836 0 0 0
-0.9718733429908752 0.8283923864364624 26.979955673217773 0 0 0
-0.6708503365516663 0.5633686184883118 24.715620040893555 0 0 0
0.9037661552429199 0.8676216006278992 24.017175674438477 0 0 0
0.9643593430519104 0.8728162050247192 24.022197723388672 0 0 0
0.8909940719604492 0.8830367922782898 24.167675018310547 0 0 0
0.7157155871391296 0.883764922618866 24.621448516845703 0 0 0
0.8795068860054016 0.8726987242698669 24.181320190429688 0 0 0
0.5883472561836243 0.8842224478721619 24.94910430908203 0 0 0
0.5033363699913025 0.5022985935211182 10.014241218566895 0 0 0
-0.8619239926338196 0.821080207824707 26.815210342407227 0 0 0
0.5191509127616882 0.8744140267372131 25.080852508544922 0 0 0
0.5398852229118347 0.8736051917076111 24.97988510131836 0 0 0
0.6163814067840576 0.8749616146087646 24.855144500732422 0 0 0
0.8151180148124695 0.8781889081001282 24.45711326599121 0 0 0
-1.5245157480239868 0.77492356300354 27.000802993774414 0 0 0
0.5771060585975647 0.8795266151428223 24.887453079223633 0 0 0
0.5706436634063721 0.8791744709014893 24.8929386138916 0 0 0
-0.9555497765541077 0.8210121989250183 26.829015731811523 0 0 0
1.0651377439498901 0.9843893051147461 23.27566909790039 0 0 0
0.722143292427063 0.8751007318496704 24.546022415161133 0 0 0
0.7678776979446411 0.877450168132782 24.502714157104492 0 0 0
1.028632640838623 1.0760241746902466 22.908935546875 0 0 0
0.86073237657547 0.8790984153747559 24.331092834472656 0 0 0
1.0556138753890991 0.8768135905265808 23.792634963989258 0 0 0
0.9582881927490234 0.8802253007888794 24.039125442504883 0 0 0
0.05702047795057297 0.8682068586349487 25.88876724243164 0 0 0
-1.1597192287445068 0.558394193649292 25.208776473999023 0 0 0
1.0346055030822754 1.0429880619049072 23.03696632385254 0 0 0
1.0620695352554321 0.9978923201560974 23.143775939941406 0 0 0
-1.3801720142364502 0.5396897792816162 25.225482940673828 0 0 0
1.0517597198486328 0.9990624189376831 23.15535545349121 0 0 0
1.0446500778198242 1.031624674797058 23.159196853637695 0 0 0
1.053523302078247 1.027700662612915 23.083431243896484 0 0 0
-0.836096465587616 0.5715362429618835 25.01026153564453 0 0 0
1.0644761323928833 1.0068637132644653 23.206510543823242 0 0 0
0.6848251223564148 0.8904536962509155 24.648082733154297 0 0 0
-1.4832097291946411 0.7701252698898315 27.082406997680664 0 0 0
0.5240038633346558 0.8886033296585083 25.06165885925293 0 0 0
-1.1154967546463013 0.8214095234870911 27.07236099243164 0 0 0
0.5062062740325928 0.8324862718582153 24.814088821411133 0 0 0
-1.270490050315857 0.8114362359046936 27.158266067504883 0 0 0
-0.02609863318502903 0.8537367582321167 25.950857162475586 0 0 0
-0.5192789435386658 0.7965946197509766 26.378440856933594 0 0 0
-0.38145673274993896 0.809299111366272 26.251426696777344 0 0 0
0.6067426800727844 0.8680028915405273 24.821836471557617 0 0 0
0.7761257290840149 1.2609573602676392 22.881135940551758 0 0 0
-1.130645990371704 0.7732795476913452 26.81200408935547 0 0 0
0.7276966571807861 0.8548898100852966 24.545124053955078 0 0 0
-0.23097841441631317 0.8340244889259338 26.163549423217773 0 0 0
-0.07214976102113724 0.8403927683830261 25.97669219970703 0 0 0
-0.23874488472938538 0.8406553864479065 26.309560775756836 0 0 0
-1.3276348114013672 0.7716537117958069 26.83666229248047 0 0 0
-1.3541936874389648 0.7736623883247375 26.89289665222168 0 0 0
-0.9458577036857605 0.8057581186294556 26.869489669799805 0 0 0
-0.9372455477714539 0.8064256906509399 26.8680362701416 0 0 0
-0.33698147535324097 0.8410805463790894 26.440044403076172 0 0 0
-0.26765403151512146 0.8399673700332642 26.232133865356445 0 0 0
0.7249485850334167 0.8646664023399353 24.54561996459961 0 0 0
-1.365201711654663 0.777851402759552 26.98095703125 0 0 0
-0.9739881157875061 0.8057186603546143 26.87309455871582 0 0 0
-0.07332316040992737 0.8521476984024048 26.04831886291504 0 0 0
0.16096214950084686 0.8627586960792542 25.749338150024414 0 0 0
0.1948685199022293 0.8619339466094971 25.639606475830078 0 0 0
-0.982881486415863 0.8093200922012329 26.872562408447266 0 0 0
0.7571614384651184 1.2840020656585693 23.0588436126709 0 0 0
0.2680308222770691 0.8679018616676331 25.604578018188477 0 0 0
-0.8675073981285095 0.8234027624130249 26.94182777404785 0 0 0
-0.7941101789474487 0.8289958834648132 26.926654815673828 0 0 0
-0.7087664008140564 0.5618014335632324 24.890995025634766 0 0 0
0.6123738884925842 0.8751726150512695 24.90183448791504 0 0 0
-0.6439234018325806 0.5488534569740295 24.64154815673828 0 0 0
0.9101223349571228 0.8796526789665222 24.205013275146484 0 0 0
0.031624432653188705 0.8734416365623474 26.069677352905273 0 0 0
0.916509747505188 0.8824148178100586 24.183774948120117 0 0 0
0.9372805953025818 0.8805834054946899 24.077754974365234 0 0 0
0.6192150712013245 0.8806979060173035 24.808252334594727 0 0 0
0.5739678144454956 0.8807757496833801 24.83256721496582 0 0 0
0.5863168835639954 0.883817195892334 24.921993255615234 0 0 0
0.5431521534919739 0.8884031176567078 25.04356575012207 0 0 0
-1.2874572277069092 0.8199523687362671 27.15874671936035 0 0 0
1.0650196075439453 1.002700924873352 23.179731369018555 0 0 0
1.0431671142578125 1.030577540397644 23.121231079101562 0 0 0
1.026579737663269 1.0760117769241333 22.89823341369629 0 0 0
0.7670602798461914 1.251219391822815 22.815650939941406 0 0 0
0.9793319702148438 1.1733077764511108 22.54496192932129 0 0 0
0.9715983271598816 1.184023141860962 22.552209854125977 0 0 0
0.9677296280860901 1.1893826723098755 22.55582618713379 0 0 0
0.3158278465270996 1.2494527101516724 23.69450569152832 0 0 0
0.5434383749961853 0.8759534955024719 24.945205688476562 0 0 0
0.04810008034110069 0.8318451046943665 25.742916107177734 0 0 0
0.7386038899421692 1.2561513185501099 22.992494583129883 0 0 0
0.7983948588371277 1.258370041847229 22.931716918945312 0 0 0
0.9233884811401367 0.8886139988899231 24.17551612854004 0 0 0
0.7731137871742249 0.8790375590324402 24.49742889404297 0 0 0
0.5552610158920288 0.8774674534797668 25.021867752075195 0 0 0
1.0070271492004395 1.123024582862854 22.69195556640625 0 0 0
0.9901596307754517 0.8739404082298279 23.95205307006836 0 0 0
0.23365873098373413 0.8605359792709351 25.593994140625 0 0 0
0.7073730826377869 0.8785008192062378 24.644495010375977 0 0 0
-0.9244716167449951 0.8095617890357971 26.86488914489746 0 0 0
-0.9141594171524048 0.8293277025222778 27.038352966308594 0 0 0
0.5711297392845154 0.878965437412262 24.935823440551758 0 0 0
0.7033888697624207 0.8802841901779175 24.647741317749023 0 0 0
1.0942094326019287 0.8788748979568481 23.666885375976562 0 0 0
-0.9503085613250732 0.8250433206558228 26.96729278564453 0 0 0
-1.1630077362060547 0.8170807361602783 27.15833854675293 0 0 0
-1.1110223531723022 0.8234186172485352 27.152851104736328 0 0 0
0.5512019395828247 0.8819103837013245 24.874099731445312 0 0 0
0.6516010165214539 0.8864285349845886 24.7788143157959 0 0 0
0.7867100238800049 0.8847843408584595 24.398035049438477 0 0 0
1.0648709535598755 0.9870052337646484 23.262208938598633 0 0 0
-0.48497506976127625 0.8264029622077942 26.498046875 0 0 0
1.0784744024276733 0.9814426302909851 23.260299682617188 0 0 0
-0.3691398501396179 0.8295442461967468 26.3660945892334 0 0 0
0.9656689167022705 1.1729148626327515 22.48476219177246 0 0 0
-1.2679249048233032 0.826848566532135 27.248092651367188 0 0 0
-1.2957795858383179 0.8198555707931519 27.14459228515625 0 0 0
-1.306586742401123 0.8220848441123962 27.23571014404297 0 0 0
0.2656877636909485 0.8379219770431519 25.423824310302734 0 0 0
-1.5238451957702637 0.7352125644683838 26.814014434814453 0 0 0
-1.3325340747833252 0.8177708983421326 27.237201690673828 0 0 0
-1.551390528678894 0.7946215271949768 27.071880340576172 0 0 0
-0.39417707920074463 0.7967637777328491 26.2086181640625 0 0 0
0.8805334568023682 0.8904792070388794 24.219301223754883 0 0 0
0.5347014665603638 0.8884550929069519 25.03615379333496 0 0 0
0.5073164701461792 0.886940598487854 25.058557510375977 0 0 0
0.9147377014160156 0.8853638768196106 24.100540161132812 0 0 0
0.047548066824674606 0.8756056427955627 25.925125122070312 0 0 0
-0.8063835501670837 0.77923983335495 26.497417449951172 0 0 0
-1.3785394430160522 0.7473397254943848 26.815547943115234 0 0 0
-1.4879426956176758 0.697666585445404 26.479074478149414 0 0 0
0.7131245732307434 0.88765549659729 24.723472595214844 0 0 0
0.5979522466659546 0.8844472169876099 24.912023544311523 0 0 0
0.5318712592124939 0.8808375597000122 24.96771812438965 0 0 0
0.898027241230011 0.8442698121070862 23.9829158782959 0 0 0
0.9067026376724243 0.8498492240905762 24.115312576293945 0 0 0
0.5631942749023438 0.883442759513855 25.028270721435547 0 0 0
-1.3230648040771484 0.8024590611457825 27.15261459350586 0 0 0
-0.22776927053928375 0.8239283561706543 26.095430374145508 0 0 0
-1.2396920919418335 0.7724644541740417 26.99824333190918 0 0 0
-0.948328971862793 0.7897579073905945 26.78607177734375 0 0 0
0.8059781789779663 0.8798337578773499 24.380373001098633 0 0 0
0.6498600840568542 0.8487754464149475 24.6171875 0 0 0
-0.9348011016845703 0.7921743988990784 26.692922592163086 0 0 0
-0.7601596713066101 0.811357855796814 26.835508346557617 0 0 0
0.7892640829086304 0.8770217895507812 24.397104263305664 0 0 0
0.7625067234039307 0.8813462257385254 24.592758178710938 0 0 0
-0.19494733214378357 0.8330197930335999 26.127614974975586 0 0 0
1.0543158054351807 0.8765197396278381 23.782487869262695 0 0 0
0.9836704730987549 0.8760722279548645 23.944730758666992 0 0 0
0.945798933506012 0.876592755317688 24.083526611328125 0 0 0
0.9213732481002808 0.8782349228858948 24.193592071533203 0 0 0
0.762758731842041 0.8559311628341675 24.426740646362305 0 0 0
0.87800133228302 0.8766375780105591 24.224424362182617 0 0 0
0.8557320237159729 0.8755474090576172 24.24713706970215 0 0 0
-0.9178280234336853 0.79561847448349 26.688926696777344 0 0 0
-0.8916001915931702 0.8035047054290771 26.862648010253906 0 0 0
-0.6699234247207642 0.8172820806503296 26.72136116027832 0 0 0
0.6712688207626343 0.8746144771575928 24.67793083190918 0 0 0
-0.4416685104370117 0.6760388612747192 25.247047424316406 0 0 0
0.7379982471466064 1.2749435901641846 23.066680908203125 0 0 0
-1.0980033874511719 0.8105756044387817 27.065662384033203 0 0 0
0.6056722402572632 0.8579224348068237 24.825061798095703 0 0 0
0.8818750381469727 0.8748661279678345 24.220796585083008 0 0 0
-0.971410870552063 0.7994757294654846 26.875539779663086 0 0 0
-0.840195894241333 0.8090002536773682 26.866195678710938 0 0 0
0.1218448132276535 0.8644723892211914 25.77265739440918 0 0 0
0.3604629337787628 0.8578988313674927 25.352039337158203 0 0 0
0.7895599007606506 0.864033043384552 24.48468017578125 0 0 0
-0.6874945163726807 0.5623780488967896 24.756452560424805 0 0 0
-1.276775598526001 0.777869701385498 26.89141273498535 0 0 0
-0.7130829691886902 0.8183552026748657 26.731151580810547 0 0 0
0.7116971015930176 0.8727527260780334 24.64175796508789 0 0 0
0.5511215329170227 0.8617570996284485 24.95646858215332 0 0 0
-1.1568140983581543 0.7891190052032471 26.89651870727539 0 0 0
-1.124536395072937 0.7917002439498901 26.893444061279297 0 0 0
0.6959982514381409 0.8717390298843384 24.70502281188965 0 0 0
0.6893219351768494 0.8656015992164612 24.663646697998047 0 0 0
0.48962679505348206 0.8700891733169556 25.178199768066406 0 0 0
-0.9064049124717712 0.8079851269721985 26.772090911865234 0 0 0
-0.08357083797454834 0.8530120849609375 26.067670822143555 0 0 0
-0.30560502409935 0.8474947214126587 26.425445556640625 0 0 0
-0.015039964579045773 0.857265293598175 26.081892013549805 0 0 0
-0.8600395321846008 0.8166641592979431 26.851924896240234 0 0 0
0.25129979848861694 0.8598713278770447 25.529571533203125 0 0 0
0.6377557516098022 0.8676730394363403 24.795076370239258 0 0 0
-1.5220304727554321 0.7758401036262512 27.246564865112305 0 0 0
1.0975786447525024 0.8856586217880249 23.745553970336914 0 0 0
0.8410190343856812 0.8874831795692444 24.344465255737305 0 0 0
0.6223449110984802 0.8668427467346191 24.808652877807617 0 0 0
-0.8058681488037109 0.7934979796409607 26.670488357543945 0 0 0
-1.2602993249893188 0.7850508689880371 26.901742935180664 0 0 0
-1.1160045862197876 0.8199416399002075 27.062482833862305 0 0 0
0.6867579817771912 0.8953532576560974 24.65960693359375 0 0 0
0.6930058002471924 0.859022319316864 24.576148986816406 0 0 0
-1.299481749534607 0.8087301850318909 27.149934768676758 0 0 0
-0.8332330584526062 0.7850173711776733 26.679290771484375 0 0 0
-0.26398396492004395 0.8092880845069885 26.06310272216797 0 0 0
1.0010079145431519 0.8865644931793213 23.924083709716797 0 0 0
-0.3693312406539917 0.8027116656303406 26.19702911376953 0 0 0
0.22225292026996613 0.862764298915863 25.53352928161621 0 0 0
-1.2965478897094727 0.7878080010414124 26.977209091186523 0 0 0
-0.30101099610328674 0.800462007522583 26.081878662109375 0 0 0
0.5353536605834961 1.2555007934570312 23.220762252807617 0 0 0
-0.9304164052009583 0.8228628635406494 26.951337814331055 0 0 0
0.8536962866783142 0.8797305822372437 24.347484588623047 0 0 0
0.7787734866142273 0.8793242573738098 24.491958618164062 0 0 0
0.09050559252500534 0.8459058403968811 25.796783447265625 0 0 0
0.802215039730072 0.8579511046409607 24.388343811035156 0 0 0
-1.2716444730758667 0.8104231357574463 27.163482666015625 0 0 0
-0.777972400188446 0.8186051249504089 26.836111068725586 0 0 0
-1.1781975030899048 0.785254716873169 26.899362564086914 0 0 0
0.7676197290420532 0.876776933670044 24.503095626831055 0 0 0
-0.1094399243593216 0.8590160012245178 26.153837203979492 0 0 0
-0.1564170867204666 0.8432804942131042 26.181495666503906 0 0 0
0.14843988418579102 0.8653231263160706 25.744295120239258 0 0 0
0.8071247339248657 0.8534839153289795 24.29964256286621 0 0 0
0.7388979196548462 1.2750260829925537 23.081117630004883 0 0 0
0.7046859860420227 1.2738008499145508 23.11233139038086 0 0 0
0.69553142786026 1.2687169313430786 23.029991149902344 0 0 0
0.6850376725196838 1.266102910041809 23.039731979370117 0 0 0
0.7730191946029663 1.2603245973587036 22.959869384765625 0 0 0
0.9704649448394775 1.1952097415924072 22.509397506713867 0 0 0
0.9750968217849731 1.1887900829315186 22.50506019592285 0 0 0
0.9776811599731445 1.1823091506958008 22.502925872802734 0 0 0
0.9674509167671204 1.1819971799850464 22.514028549194336 0 0 0
0.9594373106956482 1.1795625686645508 22.522911071777344 0 0 0
0.9715620279312134 1.182121753692627 22.599899291992188 0 0 0
0.9825541377067566 1.1736814975738525 22.588897705078125 0 0 0
0.9857921004295349 1.158510446548462 22.496583938598633 0 0 0
0.9925661087036133 1.1520495414733887 22.580263137817383 0 0 0
0.9801506400108337 1.0900496244430542 23.077472686767578 0 0 0
1.0365036725997925 1.0656574964523315 22.924400329589844 0 0 0
1.0364227294921875 1.069659948348999 23.018152236938477 0 0 0
1.056438684463501 1.0339945554733276 23.09490394592285 0 0 0
1.0714421272277832 0.984367311000824 23.17989158630371 0 0 0
-1.3061171770095825 0.8215133547782898 27.191810607910156 0 0 0
-1.2903419733047485 0.8202113509178162 27.192686080932617 0 0 0
-1.4828917980194092 0.8085965514183044 27.28309440612793 0 0 0
0.7129156589508057 0.8880438804626465 24.557437896728516 0 0 0
0.6337583065032959 0.8891198039054871 24.761707305908203 0 0 0
-1.5520036220550537 0.7879289984703064 26.9887638092041 0 0 0
-1.1627391576766968 0.8190862536430359 27.080768585205078 0 0 0
-1.10800039768219 0.8208800554275513 27.077117919921875 0 0 0
0.9394212961196899 0.8887160420417786 24.232460021972656 0 0 0
0.5823186635971069 0.8814752101898193 24.86264991760254 0 0 0
0.5753486156463623 0.8810970187187195 24.86859893798828 0 0 0
-0.9713447690010071 0.8253982067108154 26.952545166015625 0 0 0
0.5311912298202515 0.8797255754470825 25.00914764404297 0 0 0
0.9138862490653992 0.879396915435791 24.158790588378906 0 0 0
0.5719422698020935 0.8789218068122864 24.992969512939453 0 0 0
0.5431786179542542 0.8745163679122925 24.89681625366211 0 0 0
1.0482646226882935 0.8732845783233643 23.7120418548584 0 0 0
0.5417360067367554 0.8748381733894348 25.018848419189453 0 0 0
0.945214033126831 0.8762019276618958 24.126506805419922 0 0 0
-0.08425887674093246 0.8531789779663086 25.92886734008789 0 0 0
-0.8661608099937439 0.8195772171020508 26.830596923828125 0 0 0
-1.0743056535720825 0.8069670796394348 26.97102928161621 0 0 0
1.0701175928115845 0.8696550130844116 23.687721252441406 0 0 0
0.2947055399417877 0.8667793869972229 25.50444793701172 0 0 0
0.16048885881900787 0.8656235337257385 25.805187225341797 0 0 0
-0.3192453384399414 0.8454452157020569 26.35918617248535 0 0 0
-0.3331303000450134 0.8409402370452881 26.25841522216797 0 0 0
-0.8331658840179443 0.8231297135353088 26.933324813842773 0 0 0
0.6939474940299988 0.8696121573448181 24.664379119873047 0 0 0
0.6526381373405457 0.8674248456954956 24.701858520507812 0 0 0
0.6065606474876404 0.8663555383682251 24.821163177490234 0 0 0
0.3166103661060333 0.8656185269355774 25.48960304260254 0 0 0
-0.019099321216344833 0.8517529368400574 25.912630081176758 0 0 0
-0.28618013858795166 0.8451859951019287 26.345983505249023 0 0 0
-0.30232834815979004 0.8548577427864075 26.678077697753906 0 0 0
-0.3050557076931 0.8474520444869995 26.461593627929688 0 0 0
-0.35078108310699463 0.844280481338501 26.480493545532227 0 0 0
-0.9897146821022034 0.8048738241195679 26.85431480407715 0 0 0
-1.077479600906372 0.7979722619056702 26.86615562438965 0 0 0
-1.5250260829925537 0.7620465159416199 26.866100311279297 0 0 0
0.3095892071723938 0.8627358675003052 25.495262145996094 0 0 0
0.24921876192092896 0.8591110706329346 25.537267684936523 0 0 0
0.005913577973842621 0.8543701171875 26.005489349365234 0 0 0
-0.07171943038702011 0.8535158634185791 26.136852264404297 0 0 0
-0.2758747339248657 0.843356192111969 26.342378616333008 0 0 0
-0.6695540547370911 0.822385847568512 26.697229385375977 0 0 0
-1.061828851699829 0.7966349124908447 26.86542320251465 0 0 0
0.6653831005096436 0.8626912832260132 24.708646774291992 0 0 0
0.6103014945983887 0.8631008267402649 24.860137939453125 0 0 0
0.5521394610404968 0.8633015751838684 25.0130615234375 0 0 0
0.41910701990127563 0.8598220348358154 25.206167221069336 0 0 0
-0.14852392673492432 0.8424060940742493 26.07061004638672 0 0 0
-0.2554709017276764 0.8422154784202576 26.334224700927734 0 0 0
-0.7129974365234375 0.8171778917312622 26.69527244567871 0 0 0
-0.914506196975708 0.8055615425109863 26.84412956237793 0 0 0
-0.9377415180206299 0.8037654161453247 26.84821319580078 0 0 0
-0.9443273544311523 0.7997172474861145 26.742185592651367 0 0 0
-0.9609773755073547 0.80196213722229 26.852081298828125 0 0 0
0.6551442742347717 0.857032299041748 24.599361419677734 0 0 0
0.5632622838020325 0.8621286749839783 24.986886978149414 0 0 0
0.3590107560157776 0.8572969436645508 25.356124877929688 0 0 0
-0.37668880820274353 0.8312937617301941 26.386295318603516 0 0 0
-0.8627023696899414 0.8069666624069214 26.835411071777344 0 0 0
-0.9698768854141235 0.795168936252594 26.747581481933594 0 0 0
-0.1082257479429245 0.8400551676750183 26.051822662353516 0 0 0
-0.4212436079978943 0.8291338682174683 26.511716842651367 0 0 0
-0.44162386655807495 0.8276898860931396 26.519309997558594 0 0 0
-0.47035929560661316 0.8221373558044434 26.422733306884766 0 0 0
-0.9219063520431519 0.7998381853103638 26.847688674926758 0 0 0
0.7308275699615479 0.8562619686126709 24.530546188354492 0 0 0
0.5621142983436584 0.8532244563102722 24.903209686279297 0 0 0
-0.195376917719841 0.8317230343818665 26.09600067138672 0 0 0
-0.5332586169242859 0.8185777068138123 26.552412033081055 0 0 0
0.26383551955223083 0.8417973518371582 25.42687225341797 0 0 0
-0.22749580442905426 0.8245186805725098 26.112899780273438 0 0 0
-0.8463329076766968 0.7953364253044128 26.837556838989258 0 0 0
-0.8468244075775146 0.7806832194328308 26.626832962036133 0 0 0
-0.2261895388364792 0.7125099301338196 25.32215690612793 0 0 0
-0.42805016040802 0.665990948677063 25.22896957397461 0 0 0
0.7058095932006836 1.267209768295288 23.010732650756836 0 0 0
-0.08578416705131531 0.6943922638893127 24.87561798095703 0 0 0
-0.4493389427661896 0.6822561025619507 25.42958641052246 0 0 0
0.3156857192516327 1.2472063302993774 23.68826675415039 0 0 0
1.0219990015029907 1.0669095516204834 23.034561157226562 0 0 0
1.063841700553894 0.978733479976654 23.2857666015625 0 0 0
-1.4788466691970825 0.8119927048683167 27.410396575927734 0 0 0
0.8763366341590881 0.8951214551925659 24.29627799987793 0 0 0
0.6890534162521362 0.8897987008094788 24.561962127685547 0 0 0
0.6766078472137451 0.8837769031524658 24.591283798217773 0 0 0
-1.4512041807174683 0.8034495115280151 27.288225173950195 0 0 0
0.7596485018730164 0.8891298770904541 24.616788864135742 0 0 0
0.5518784523010254 0.8822266459465027 24.887863159179688 0 0 0
-1.4667004346847534 0.7995352149009705 27.28903579711914 0 0 0
0.9267522692680359 0.8847024440765381 24.144420623779297 0 0 0
0.8007805943489075 0.8888264894485474 24.57774543762207 0 0 0
1.0370008945465088 0.8807306885719299 23.82365608215332 0 0 0
0.7463803887367249 0.8836748600006104 24.630327224731445 0 0 0
-1.4563618898391724 0.7000091075897217 26.494626998901367 0 0 0
1.0307093858718872 0.8781291246414185 23.83111000061035 0 0 0
0.791113555431366 0.880142867565155 24.48566436767578 0 0 0
0.7730062007904053 0.8792253732681274 24.503162384033203 0 0 0
0.9980886578559875 0.8776593804359436 23.967998504638672 0 0 0
0.7664114832878113 0.8765119314193726 24.509965896606445 0 0 0
0.6910422444343567 0.876634955406189 24.665542602539062 0 0 0
0.6712478995323181 0.874976396560669 24.700716018676758 0 0 0
0.6269894242286682 0.8766635060310364 24.825563430786133 0 0 0
-1.0951929092407227 0.8078933358192444 26.972179412841797 0 0 0
0.14735254645347595 0.8637797832489014 25.707040786743164 0 0 0
-0.3651953637599945 0.7940590381622314 26.07474136352539 0 0 0
-1.2969276905059814 0.7890204191207886 26.98781967163086 0 0 0
-0.21797068417072296 0.8067023158073425 26.008296966552734 0 0 0
0.7266502976417542 0.8730965256690979 24.650827407836914 0 0 0
0.5875340104103088 0.8644634485244751 24.731475830078125 0 0 0
0.6446288228034973 0.8697700500488281 24.828880310058594 0 0 0
-0.8109570145606995 0.78340744972229 26.618896484375 0 0 0
0.6237961649894714 0.868648111820221 24.847238540649414 0 0 0
-0.21338294446468353 0.8120279312133789 26.00440216064453 0 0 0
0.3822932243347168 0.8660149574279785 25.336917877197266 0 0 0
-0.08598154783248901 0.8473954200744629 25.948766708374023 0 0 0
0.6275237798690796 0.8636835813522339 24.724727630615234 0 0 0
0.38966572284698486 0.8639937043190002 25.3320369720459 0 0 0
0.864368736743927 0.8408591151237488 24.115785598754883 0 0 0
0.26311880350112915 0.8334934115409851 25.325071334838867 0 0 0
0.6883432865142822 0.8639103770256042 24.687772750854492 0 0 0
0.6760168671607971 0.8638801574707031 24.681781768798828 0 0 0
0.35401684045791626 0.8594557046890259 25.359148025512695 0 0 0
-0.026551557704806328 0.8504282832145691 26.0067081451416 0 0 0
-1.4931509494781494 0.7441738247871399 26.877758026123047 0 0 0
-1.1571569442749023 0.7864749431610107 26.876850128173828 0 0 0
-0.9124332666397095 0.7867830991744995 26.743183135986328 0 0 0
-1.5111924409866333 0.7545943260192871 26.763957977294922 0 0 0
0.5093992948532104 0.8591270446777344 25.03162956237793 0 0 0
-0.4851551949977875 0.8271406888961792 26.53402328491211 0 0 0
-0.8387227654457092 0.8052595853805542 26.723033905029297 0 0 0
-1.1795909404754639 0.7717961668968201 26.88484764099121 0 0 0
0.22805215418338776 0.8504184484481812 25.553674697875977 0 0 0
-0.834132969379425 0.8065717220306396 26.830631256103516 0 0 0
-1.1127424240112305 0.7497683763504028 26.675386428833008 0 0 0
0.32311028242111206 0.8509676456451416 25.35173797607422 0 0 0
-0.5312382578849792 0.48752301931381226 24.28553009033203 0 0 0
-0.8059220910072327 0.7937633395195007 26.68558120727539 0 0 0
1.0604655742645264 0.8686813116073608 23.67560386657715 0 0 0
0.7511417865753174 0.8557590246200562 24.426483154296875 0 0 0
-0.77549147605896 0.7253747582435608 11.381168365478516 0 0 0
0.6994010806083679 1.280306100845337 23.05626106262207 0 0 0
0.7594456076622009 1.285509705543518 23.110815048217773 0 0 0
0.7361287474632263 1.270904302597046 23.0241641998291 0 0 0
0.7079818844795227 1.269899606704712 23.049924850463867 0 0 0
0.7010167837142944 1.2753634452819824 23.165313720703125 0 0 0
0.6874629259109497 1.2691528797149658 23.068435668945312 0 0 0
0.7771503329277039 1.2696548700332642 22.986167907714844 0 0 0
0.7180840969085693 1.2565956115722656 22.933582305908203 0 0 0
0.7363408207893372 1.2519158124923706 22.91740608215332 0 0 0
0.9742050170898438 1.187535047531128 22.485544204711914 0 0 0
0.9601247906684875 1.1792376041412354 22.5015926361084 0 0 0
0.9750669598579407 1.1770745515823364 22.48568344116211 0 0 0
0.9827144742012024 1.1746535301208496 22.585954666137695 0 0 0
1.0009007453918457 1.148193597793579 22.69458770751953 0 0 0
1.0476469993591309 1.0446717739105225 22.989723205566406 0 0 0
1.0562762022018433 1.0336401462554932 23.092153549194336 0 0 0
1.0466670989990234 1.0304924249649048 23.106403350830078 0 0 0
1.0610074996948242 1.0094680786132812 23.092844009399414 0 0 0
-1.277957558631897 0.8165231347084045 27.140111923217773 0 0 0
-1.3340977430343628 0.8119014501571655 27.14150047302246 0 0 0
0.8805718421936035 0.8901786804199219 24.252090454101562 0 0 0
-1.1709582805633545 0.8265817761421204 27.26723289489746 0 0 0
-1.4497982263565063 0.8035821914672852 27.272817611694336 0 0 0
0.9004096388816833 0.8842214941978455 24.111085891723633 0 0 0
-1.3056710958480835 0.8080147504806519 27.143966674804688 0 0 0
-1.336963176727295 0.8098742365837097 27.275466918945312 0 0 0
0.9369987845420837 0.8872331976890564 24.19435691833496 0 0 0
0.8072143197059631 0.8850162625312805 24.44862174987793 0 0 0
0.7100712060928345 0.8841895461082458 24.663707733154297 0 0 0
0.622147798538208 0.8836988210678101 24.866052627563477 0 0 0
0.5766001343727112 0.8819814324378967 24.8846435546875 0 0 0
0.5326307415962219 0.8829977512359619 25.06609344482422 0 0 0
0.9452040195465088 0.8848026394844055 24.186159133911133 0 0 0
0.9258355498313904 0.8879829049110413 24.328943252563477 0 0 0
0.7586172223091125 0.8797121644020081 24.496185302734375 0 0 0
0.7509797811508179 0.8802869319915771 24.523767471313477 0 0 0
0.8948896527290344 0.8795710802078247 24.23941993713379 0 0 0
1.0565085411071777 0.8762572407722473 23.822521209716797 0 0 0
0.9568922519683838 0.875676691532135 24.053308486938477 0 0 0
-0.7948631048202515 0.8306983709335327 26.97787857055664 0 0 0
1.0696858167648315 0.8740701675415039 23.807880401611328 0 0 0
0.7289057970046997 0.874933123588562 24.69319725036621 0 0 0
0.5895498394966125 0.8662807941436768 24.77382469177246 0 0 0
0.22590863704681396 0.8667528629302979 25.653135299682617 0 0 0
0.1674375683069229 0.8631683588027954 25.691360473632812 0 0 0
-0.4393763542175293 0.6803194284439087 25.419883728027344 0 0 0
-0.3708876073360443 0.8472363352775574 26.534135818481445 0 0 0
0.9705399870872498 0.8707126975059509 24.039554595947266 0 0 0
0.2027922421693802 0.8623659610748291 25.669279098510742 0 0 0
-0.017696699127554893 0.8526768684387207 25.92948341369629 0 0 0
-0.31964361667633057 0.8417351841926575 26.31051254272461 0 0 0
-0.9735801815986633 0.8064218759536743 26.88377571105957 0 0 0
-0.9921887516975403 0.8049697279930115 26.88662338256836 0 0 0
-1.5310053825378418 0.7661993503570557 27.02142333984375 0 0 0
0.13275893032550812 0.8550580739974976 25.71504783630371 0 0 0
-0.026417698711156845 0.8533174991607666 26.062713623046875 0 0 0
-0.7216700315475464 0.7732217311859131 26.463773727416992 0 0 0
-0.3375917375087738 0.837451696395874 26.319080352783203 0 0 0
-0.35135868191719055 0.8407434821128845 26.45321273803711 0 0 0
-0.669505774974823 0.8221561908721924 26.690410614013672 0 0 0
-0.762531042098999 0.8194986581802368 26.843793869018555 0 0 0
-0.8741321563720703 0.8110174536705017 26.867759704589844 0 0 0
-0.915708065032959 0.8121213316917419 27.005626678466797 0 0 0
-0.9361580014228821 0.806236207485199 26.87904930114746 0 0 0
-1.316973090171814 0.7765366435050964 26.900774002075195 0 0 0
0.689802348613739 0.8630306124687195 24.686655044555664 0 0 0
0.5447978377342224 0.8599734902381897 24.916149139404297 0 0 0
-0.8457655906677246 0.7801620960235596 26.61554527282715 0 0 0
0.17696548998355865 0.854823112487793 25.68780517578125 0 0 0
-1.3679625988006592 0.7467702031135559 26.781429290771484 0 0 0
-0.12244019657373428 0.8482139706611633 26.242643356323242 0 0 0
-1.3996658325195312 0.7555050253868103 27.035608291625977 0 0 0
-0.7175081372261047 0.8001171946525574 26.710744857788086 0 0 0
-1.1305721998214722 0.7754700183868408 26.91238784790039 0 0 0
-0.8442394733428955 0.7936351895332336 26.73923683166504 0 0 0
-0.32956039905548096 0.8361475467681885 26.44645118713379 0 0 0
0.7306181788444519 0.8554413914680481 24.527484893798828 0 0 0
0.6682583093643188 0.8561385273933411 24.707544326782227 0 0 0
0.5564808249473572 0.8548285365104675 24.90766143798828 0 0 0
0.2668355405330658 0.8472861647605896 25.504131317138672 0 0 0
0.6487283110618591 0.848242998123169 24.603519439697266 0 0 0
-0.3641826808452606 0.8264762759208679 26.333240509033203 0 0 0
-0.4055477976799011 0.8277748227119446 26.47792625427246 0 0 0
-0.7215955853462219 0.8132909536361694 26.837623596191406 0 0 0
-1.3689996004104614 0.7651399374008179 26.772321701049805 0 0 0
0.3049595057964325 1.2456881999969482 23.72947883605957 0 0 0
-1.545806884765625 0.8006286025047302 27.12656593322754 0 0 0
0.5935617089271545 0.852097749710083 24.773706436157227 0 0 0
0.6770210266113281 0.8508581519126892 24.700838088989258 0 0 0
0.12389442324638367 0.8676755428314209 25.844757080078125 0 0 0
0.5193179249763489 0.8747562766075134 25.20490074157715 0 0 0
-1.515745759010315 1.0655099153518677 25.834903717041016 0 0 0
0.6980550289154053 0.8634663820266724 24.6790714263916 0 0 0
1.0981172323226929 0.8859062790870667 23.74114990234375 0 0 0
-0.6032235622406006 0.7911185622215271 26.425764083862305 0 0 0
1.02313232421875 1.0679391622543335 23.014310836791992 0 0 0
-1.468383550643921 0.7988876104354858 27.273792266845703 0 0 0
-0.6692003607749939 0.8095493912696838 26.308385848999023 0 0 0
1.0667673349380493 0.9807817935943604 23.320938110351562 0 0 0
0.8251831531524658 0.8637349009513855 24.3574275970459 0 0 0
0.9762863516807556 0.8670021891593933 23.912935256958008 0 0 0
1.0543744564056396 1.0029553174972534 23.216108322143555 0 0 0
0.3228211998939514 1.2496529817581177 23.67506980895996 0 0 0
-0.6077194809913635 0.831001341342926 26.802658081054688 0 0 0
0.5227760672569275 0.8890228867530823 25.05206871032715 0 0 0
-1.4369500875473022 0.798406183719635 27.276342391967773 0 0 0
-0.4837191700935364 0.667941153049469 25.322351455688477 0 0 0
-0.9770196676254272 0.7834043502807617 26.763891220092773 0 0 0
0.6959139108657837 1.2901087999343872 23.180700302124023 0 0 0
0.7588432431221008 1.268713355064392 23.01272201538086 0 0 0
0.5848698616027832 1.2561291456222534 23.019859313964844 0 0 0
0.532361626625061 1.2575336694717407 23.192907333374023 0 0 0
-0.43953022360801697 0.6578904390335083 25.19786262512207 0 0 0
-1.1020891666412354 0.7317788004875183 26.45581817626953 0 0 0
-0.34846988320350647 0.7968699336051941 26.114274978637695 0 0 0
-0.605040431022644 0.7949990034103394 26.46864891052246 0 0 0
0.04486694186925888 0.8289445638656616 25.766332626342773 0 0 0
1.0308854579925537 1.0719761848449707 22.911476135253906 0 0 0
-1.182484745979309 0.7730691432952881 26.904077529907227 0 0 0
-1.1277304887771606 0.7724554538726807 26.745532989501953 0 0 0
-0.9518126845359802 0.791302502155304 26.875368118286133 0 0 0
-0.3230152130126953 0.825124979019165 26.252674102783203 0 0 0
0.03691060468554497 0.8391826152801514 25.767719268798828 0 0 0
0.6632090210914612 0.8508870005607605 24.585956573486328 0 0 0
0.7538194060325623 0.8509110808372498 24.35588836669922 0 0 0
-1.000675082206726 0.7949193716049194 26.879777908325195 0 0 0
-0.9505990743637085 0.7937559485435486 26.717668533325195 0 0 0
-0.1345071792602539 0.8365574479103088 26.011497497558594 0 0 0
-0.07364928722381592 0.8405759334564209 25.979923248291016 0 0 0
0.0472249910235405 0.8434223532676697 25.76057243347168 0 0 0
-0.8632680773735046 0.8092658519744873 26.854341506958008 0 0 0
-0.5554218292236328 0.8260833621025085 26.644472122192383 0 0 0
-0.14271032810211182 0.8446519374847412 26.167190551757812 0 0 0
0.49221962690353394 0.862949013710022 25.174631118774414 0 0 0
0.6599404811859131 0.862400233745575 24.73419761657715 0 0 0
-1.3608959913253784 0.7583875060081482 26.453472137451172 0 0 0
-1.3503175973892212 0.7691861391067505 26.75291633605957 0 0 0
-1.3171122074127197 0.7769702672958374 26.904569625854492 0 0 0
-0.8412066102027893 0.8146624565124512 26.848291397094727 0 0 0
-0.3548791706562042 0.8389118909835815 26.415569305419922 0 0 0
-0.33837711811065674 0.8349820971488953 26.25521469116211 0 0 0
-0.031369928270578384 0.8505488634109497 25.95477867126465 0 0 0
0.13129737973213196 0.8558791279792786 25.707399368286133 0 0 0
0.7050480246543884 0.8633908629417419 24.545330047607422 0 0 0
0.7214365005493164 0.8642475605010986 24.530071258544922 0 0 0
-0.9753621816635132 0.8080306053161621 26.87099266052246 0 0 0
-0.9493229389190674 0.8100557923316956 26.86681365966797 0 0 0
-0.32231253385543823 0.8448351621627808 26.400880813598633 0 0 0
-0.07487325370311737 0.8564004302024841 26.130146026611328 0 0 0
-0.017405183985829353 0.8601475954055786 26.099254608154297 0 0 0
-0.003030074993148446 0.8547837734222412 25.912487030029297 0 0 0
0.3051225244998932 0.864098846912384 25.464603424072266 0 0 0
0.5135003924369812 0.8689870834350586 25.072494506835938 0 0 0
0.9621369242668152 0.8663753271102905 23.912315368652344 0 0 0
-0.8714646100997925 0.8197705149650574 26.85120391845703 0 0 0
-0.3444918394088745 0.8469569683074951 26.40871238708496 0 0 0
0.1553260236978531 0.8645201325416565 25.690187454223633 0 0 0
0.874905526638031 0.8739799857139587 24.232357025146484 0 0 0
0.9364454746246338 0.8721262216567993 24.023115158081055 0 0 0
0.6255650520324707 0.8743765354156494 24.7617130279541 0 0 0
0.8151019811630249 0.879294216632843 24.437973022460938 0 0 0
0.8906247615814209 0.8781322240829468 24.215547561645508 0 0 0
0.6948577761650085 0.8814991116523743 24.698789596557617 0 0 0
0.7496950626373291 0.8794022798538208 24.50057029724121 0 0 0
-1.0941083431243896 0.8187787532806396 27.035409927368164 0 0 0
-1.0716776847839355 0.8205605149269104 27.03295135498047 0 0 0
-0.9856773018836975 0.827333390712738 27.021800994873047 0 0 0
0.6183227896690369 0.88089919090271 24.766515731811523 0 0 0
0.703576922416687 0.8804506659507751 24.543062210083008 0 0 0
0.7395991086959839 0.8823084235191345 24.509437561035156 0 0 0
0.8047760725021362 0.8856084942817688 24.44679069519043 0 0 0
-1.468703269958496 0.7997693419456482 27.28146743774414 0 0 0
-1.1645193099975586 0.8221979737281799 27.19700050354004 0 0 0
-1.1457329988479614 0.8237103223800659 27.19553565979004 0 0 0
0.04522673040628433 0.8770794868469238 25.90489959716797 0 0 0
0.6016413569450378 0.8884677886962891 24.92831802368164 0 0 0
0.8972619771957397 0.883711040019989 24.0620059967041 0 0 0
-1.5208182334899902 0.796435534954071 27.19879722595215 0 0 0
0.5209941267967224 0.888537585735321 25.015878677368164 0 0 0
1.1060001850128174 0.8855376839637756 23.52517318725586 0 0 0
-1.4312628507614136 0.8077433705329895 27.200288772583008 0 0 0
-1.292614459991455 0.8192641735076904 27.19995880126953 0 0 0
-1.281360149383545 0.8201889395713806 27.19963264465332 0 0 0
0.6870654821395874 0.8948847055435181 24.702959060668945 0 0 0
-1.3228331804275513 0.8205190896987915 27.19877815246582 0 0 0
-1.266573190689087 0.8251482248306274 27.197315216064453 0 0 0
0.38373488187789917 1.2578903436660767 23.43805503845215 0 0 0
1.085769772529602 0.8793549537658691 23.568695068359375 0 0 0
0.7823947668075562 0.8591796159744263 24.326831817626953 0 0 0
0.07203515619039536 0.8329532742500305 25.5976619720459 0 0 0
0.12200526148080826 0.8254289031028748 25.569982528686523 0 0 0
0.5740424990653992 0.8508238196372986 24.81116485595703 0 0 0
-0.5309668779373169 0.8375515341758728 26.749191284179688 0 0 0
-0.029481174424290657 0.7328241467475891 10.747082710266113 0 0 0
0.758015513420105 1.2865707874298096 23.082965850830078 0 0 0
0.6921103000640869 1.2764892578125 23.144115447998047 0 0 0
0.7721516489982605 1.2672536373138428 22.914335250854492 0 0 0
0.7929847240447998 1.2522183656692505 22.740346908569336 0 0 0
0.9637929797172546 1.200048804283142 22.59064292907715 0 0 0
0.9653456807136536 1.1847773790359497 22.595184326171875 0 0 0
0.9775586128234863 1.166198968887329 22.58401870727539 0 0 0
1.0318042039871216 1.082586646080017 23.01329803466797 0 0 0
-1.5501972436904907 0.792342483997345 27.06191635131836 0 0 0
0.8746315240859985 0.8890451788902283 24.22500228881836 0 0 0
-1.5251199007034302 0.7997854351997375 27.341814041137695 0 0 0
0.622839629650116 0.8840013742446899 24.816532135009766 0 0 0
-0.9844276905059814 0.8275728821754456 27.036434173583984 0 0 0
-1.0966554880142212 0.8187141418457031 27.05038070678711 0 0 0
0.8077049851417542 0.883499264717102 24.46902084350586 0 0 0
0.8910397291183472 0.8776487112045288 24.21035385131836 0 0 0
0.5354341268539429 0.8726831674575806 25.072269439697266 0 0 0
0.1595536768436432 0.8625999093055725 25.708053588867188 0 0 0
-1.0838762521743774 0.8000842332839966 26.868724822998047 0 0 0
0.6002493500709534 0.8661540746688843 24.839935302734375 0 0 0
0.3047506511211395 0.8611412644386292 25.43030548095703 0 0 0
0.28608056902885437 0.8660303950309753 25.625091552734375 0 0 0
-0.8462421298027039 0.8007717132568359 26.838459014892578 0 0 0
0.1345694661140442 0.8567566275596619 25.725080490112305 0 0 0
-0.5351879596710205 0.8178122043609619 26.568859100341797 0 0 0
-0.2746913731098175 0.8432479500770569 26.278650283813477 0 0 0
-0.3116326630115509 0.8468530774116516 26.480039596557617 0 0 0
-0.575259268283844 0.8193240165710449 26.58011817932129 0 0 0
-0.5090371370315552 0.8241117596626282 26.55837631225586 0 0 0
-0.3830697536468506 0.826988935470581 26.32713508605957 0 0 0
-0.3306765854358673 0.8306397199630737 26.30577278137207 0 0 0
-0.9360769391059875 0.8027663230895996 26.851552963256836 0 0 0
-0.9043984413146973 0.7915371656417847 26.296998977661133 0 0 0
0.6558516621589661 0.8591884970664978 24.615264892578125 0 0 0
0.6445955634117126 0.8643947839736938 24.801956176757812 0 0 0
0.683875560760498 0.8565559983253479 24.590682983398438 0 0 0
0.8760225772857666 0.8728535771369934 24.226560592651367 0 0 0
0.8197528123855591 0.8799998164176941 24.457956314086914 0 0 0
0.6900008916854858 0.8774751424789429 24.580652236938477 0 0 0
0.7529415488243103 0.8807280659675598 24.521896362304688 0 0 0
0.5897446870803833 1.2599369287490845 23.140493392944336 0 0 0
0.7401748895645142 1.2546237707138062 22.945798873901367 0 0 0
-0.031710848212242126 1.2444839477539062 24.11329460144043 0 0 0
-0.6591224670410156 0.43065133690834045 24.454687118530273 0 0 0
0.6899028420448303 0.8958442807197571 24.754934310913086 0 0 0
1.013443946838379 1.0858107805252075 23.033281326293945 0 0 0
0.7229292988777161 0.8627265095710754 24.553592681884766 0 0 0
-0.7874892950057983 0.5726773142814636 24.988019943237305 0 0 0
-0.44290250539779663 0.8288357257843018 26.53491973876953 0 0 0
0.33795443177223206 0.8631102442741394 25.406484603881836 0 0 0
0.6178592443466187 1.2577937841415405 23.05437660217285 0 0 0
-0.2276027351617813 0.8143230080604553 26.083011627197266 0 0 0
0.4744535982608795 1.272343635559082 23.479740142822266 0 0 0
-0.8033765554428101 0.03407842665910721 36.668697357177734 0 0 0
-0.5755121111869812 0.7715540528297424 26.186235427856445 0 0 0
-1.129412293434143 0.7643639445304871 26.73334503173828 0 0 0
-0.9483126401901245 0.7785902619361877 26.70793342590332 0 0 0
0.6458265781402588 0.8462767004966736 24.627017974853516 0 0 0
0.7593321800231934 0.8522812724113464 24.521665573120117 0 0 0
-0.5130279064178467 0.8217489719390869 26.5921573638916 0 0 0
-0.9410845637321472 0.8024064898490906 26.922130584716797 0 0 0
-0.4347313940525055 0.5777719020843506 18.790088653564453 0 0 0
0.5590783357620239 0.8584029674530029 24.91221809387207 0 0 0
0.6169194579124451 0.8615729808807373 24.862503051757812 0 0 0
0.8264293074607849 0.8586763739585876 24.243999481201172 0 0 0
-1.3597010374069214 0.7742168307304382 26.957599639892578 0 0 0
-1.0541486740112305 0.7989118695259094 26.93632698059082 0 0 0
-0.8341131210327148 0.8159868121147156 26.899715423583984 0 0 0
0.2853737771511078 0.8618693947792053 25.553104400634766 0 0 0
