ply
format ascii 1.0
element vertex 425
property float x
property float y
property float z
property uchar red
property uchar green
property uchar blue
end_header
-1.3862097263336182 1.7365282773971558 16.527385711669922 0 0 0
-1.3398804664611816 1.7348768711090088 16.477510452270508 0 0 0
-0.7239129543304443 0.4286251962184906 10.836302757263184 0 0 0
-0.7243072390556335 0.41719067096710205 10.858487129211426 0 0 0
-0.7162259817123413 0.4291225075721741 10.833565711975098 0 0 0
-0.7163473963737488 0.4184480905532837 10.842639923095703 0 0 0
-0.7163473963737488 0.4184480905532837 10.842639923095703 0 0 0
-0.7135545611381531 0.4084309935569763 10.870651245117188 0 0 0
-0.7134764194488525 0.4061324894428253 10.875916481018066 0 0 0
-0.7032922506332397 0.4150769114494324 10.84354305267334 0 0 0
-0.6991166472434998 0.4455544054508209 10.773763656616211 0 0 0
-0.6989989280700684 0.41600027680397034 10.842267990112305 0 0 0
-0.7131333947181702 0.3388303220272064 11.10003662109375 0 0 0
-0.7118865847587585 0.33594179153442383 11.107793807983398 0 0 0
-0.6943076848983765 0.4139098823070526 10.845245361328125 0 0 0
-0.6921067833900452 0.4197038412094116 10.820544242858887 0 0 0
-0.6881595849990845 0.429495245218277 10.806437492370605 0 0 0
-0.6863612532615662 0.4343339502811432 10.77688217163086 0 0 0
-0.6806693077087402 0.4388892650604248 10.768013000488281 0 0 0
-0.68283611536026 0.41953587532043457 10.821385383605957 0 0 0
-0.6706275343894958 0.43615391850471497 10.778677940368652 0 0 0
-0.6901060938835144 0.3081650733947754 11.175217628479004 0 0 0
-0.6901060938835144 0.3081650733947754 11.175217628479004 0 0 0
-0.6798476576805115 0.64432692527771 10.984041213989258 0 0 0
-0.6618712544441223 0.4208934009075165 10.80817699432373 0 0 0
-0.6618712544441223 0.4208934009075165 10.80817699432373 0 0 0
-0.6600399017333984 0.42922595143318176 10.804722785949707 0 0 0
-0.6529929041862488 0.42076119780540466 10.806148529052734 0 0 0
-0.6501430869102478 0.41911619901657104 10.816082000732422 0 0 0
-0.6483904123306274 0.41701316833496094 10.813526153564453 0 0 0
-0.6666979789733887 0.257461279630661 11.329475402832031 0 0 0
-0.6368400454521179 0.43004512786865234 10.787198066711426 0 0 0
-0.6371626257896423 0.41979295015335083 10.801872253417969 0 0 0
-0.6341795325279236 0.42762014269828796 10.797945022583008 0 0 0
-0.6331701278686523 0.429612398147583 10.794928550720215 0 0 0
-0.629489004611969 0.4213360846042633 10.7997407913208 0 0 0
-0.6339311003684998 0.3717423677444458 10.958418846130371 0 0 0
-0.6399414539337158 0.6416314244270325 10.97230052947998 0 0 0
-0.6238534450531006 0.4309919476509094 10.780550956726074 0 0 0
-0.6137762665748596 0.4346853792667389 10.754905700683594 0 0 0
-0.6276158094406128 0.34301918745040894 11.04200553894043 0 0 0
-0.6130619049072266 0.42608678340911865 10.783482551574707 0 0 0
-0.6122498512268066 0.4214228391647339 10.788363456726074 0 0 0
-0.6090824007987976 0.43898528814315796 10.751381874084473 0 0 0
-0.6084434986114502 0.4361846446990967 10.755476951599121 0 0 0
-0.6101937890052795 0.4061790406703949 10.832972526550293 0 0 0
-0.6061546802520752 0.4656512439250946 10.779458045959473 0 0 0
-0.6028701663017273 0.43600255250930786 10.754993438720703 0 0 0
-0.6124935150146484 0.3626839518547058 10.972375869750977 0 0 0
-0.6109976768493652 0.36465132236480713 10.970795631408691 0 0 0
-0.5985498428344727 0.4397353231906891 10.741308212280273 0 0 0
-0.5993148684501648 0.42222175002098083 10.781235694885254 0 0 0
-0.607877254486084 0.3645665943622589 10.967947006225586 0 0 0
-0.5978313088417053 0.42874565720558167 10.778342247009277 0 0 0
-0.5957265496253967 0.4251043498516083 10.775436401367188 0 0 0
-0.5920462012290955 0.4217970669269562 10.775765419006348 0 0 0
-0.6021343469619751 0.6385822296142578 10.959426879882812 0 0 0
-0.6021343469619751 0.6385822296142578 10.959426879882812 0 0 0
-0.602412760257721 0.6375671029090881 10.981451034545898 0 0 0
-0.602412760257721 0.6375671029090881 10.981451034545898 0 0 0
-0.5859405994415283 0.42649510502815247 10.777525901794434 0 0 0
-0.5859405994415283 0.42649510502815247 10.777525901794434 0 0 0
-0.5974223017692566 0.641075074672699 10.957511901855469 0 0 0
-0.5823050141334534 0.42171651124954224 10.772409439086914 0 0 0
-0.5791832804679871 0.41651540994644165 10.780230522155762 0 0 0
-0.5791832804679871 0.41651540994644165 10.780230522155762 0 0 0
-0.5771923065185547 0.4266476631164551 10.779114723205566 0 0 0
-0.5898871421813965 0.6406035423278809 10.951212882995605 0 0 0
-0.5849438905715942 0.6270716786384583 10.938169479370117 0 0 0
-0.5681905746459961 0.3995373547077179 10.842631340026855 0 0 0
-0.5605995655059814 0.4335944950580597 10.732481002807617 0 0 0
-0.5597501993179321 0.4228519797325134 10.76172161102295 0 0 0
-0.5580815672874451 0.4267137944698334 10.761885643005371 0 0 0
-0.5565013289451599 0.4211595952510834 10.769133567810059 0 0 0
-0.5655934810638428 0.3479694724082947 11.005849838256836 0 0 0
-0.5521447062492371 0.4450061619281769 10.722113609313965 0 0 0
-0.5666232109069824 0.6430208683013916 10.946258544921875 0 0 0
-0.5666232109069824 0.6430208683013916 10.946258544921875 0 0 0
-0.5529441237449646 0.4157564342021942 10.782217979431152 0 0 0
-0.553426206111908 0.411446750164032 10.797418594360352 0 0 0
-0.5515516996383667 0.42091163992881775 10.767518043518066 0 0 0
-0.5453306436538696 0.4260299503803253 10.746129989624023 0 0 0
-0.5583022832870483 0.6455625295639038 10.938477516174316 0 0 0
-0.5583022832870483 0.6455625295639038 10.938477516174316 0 0 0
-0.5374062061309814 0.43411290645599365 10.737756729125977 0 0 0
-0.5322805047035217 0.436226487159729 10.726265907287598 0 0 0
-0.5300526022911072 0.43064936995506287 10.747428894042969 0 0 0
-0.5250105261802673 0.4361841678619385 10.730443000793457 0 0 0
-0.5215737223625183 0.41157758235931396 10.783185005187988 0 0 0
-0.5169410705566406 0.4328464865684509 10.728585243225098 0 0 0
-0.5241808295249939 0.35844987630844116 10.95499324798584 0 0 0
-0.5145828723907471 0.4415919780731201 10.718568801879883 0 0 0
-0.514771044254303 0.42632028460502625 10.741581916809082 0 0 0
-0.5091860890388489 0.4268060028553009 10.741786003112793 0 0 0
-0.501392126083374 0.4330422878265381 10.721657752990723 0 0 0
-0.4977071285247803 0.4261195957660675 10.733016014099121 0 0 0
-0.49070170521736145 0.43162065744400024 10.725154876708984 0 0 0
-0.49072009325027466 0.4225683808326721 10.733223915100098 0 0 0
-0.49813514947891235 0.648648738861084 10.919059753417969 0 0 0
-0.4826311767101288 0.4294140338897705 10.726444244384766 0 0 0
-0.4797511398792267 0.43156078457832336 10.711669921875 0 0 0
-0.4727074205875397 0.42878371477127075 10.721430778503418 0 0 0
-0.4671666920185089 0.43183839321136475 10.716790199279785 0 0 0
-0.46636220812797546 0.437354177236557 10.705229759216309 0 0 0
-0.46347343921661377 0.43543872237205505 10.704729080200195 0 0 0
-0.4632294476032257 0.4292677044868469 10.721115112304688 0 0 0
-0.46031925082206726 0.43289661407470703 10.707557678222656 0 0 0
-0.46704378724098206 0.36153843998908997 10.922581672668457 0 0 0
-0.4571826159954071 0.4363707900047302 10.702886581420898 0 0 0
-0.4542446434497833 0.43289914727211 10.71046257019043 0 0 0
-0.4576736390590668 0.3604922890663147 10.927175521850586 0 0 0
-0.4565611481666565 0.3621196746826172 10.919676780700684 0 0 0
-0.44906193017959595 0.4267508089542389 10.710550308227539 0 0 0
-0.44914111495018005 0.4250902533531189 10.715927124023438 0 0 0
-0.4552864730358124 0.6461371779441833 10.902318000793457 0 0 0
-0.44880446791648865 0.3598649799823761 10.925719261169434 0 0 0
-0.43949976563453674 0.4205349087715149 10.727750778198242 0 0 0
-0.43649792671203613 0.42458122968673706 10.711779594421387 0 0 0
-0.43649792671203613 0.42458122968673706 10.711779594421387 0 0 0
-0.4413624405860901 0.36267560720443726 10.909144401550293 0 0 0
-0.4303213059902191 0.4309714436531067 10.697094917297363 0 0 0
-0.42288780212402344 0.43044164776802063 10.699219703674316 0 0 0
-0.42162206768989563 0.3635879158973694 10.902220726013184 0 0 0
-0.4079667329788208 0.42986932396888733 10.693257331848145 0 0 0
-0.41243550181388855 0.3803879916667938 10.84566593170166 0 0 0
-0.4096849262714386 0.35362839698791504 10.926650047302246 0 0 0
-0.4020693898200989 0.4255996644496918 10.693936347961426 0 0 0
-0.40872469544410706 0.3556741178035736 10.931997299194336 0 0 0
-0.3981879949569702 0.43661677837371826 10.679352760314941 0 0 0
-0.40216121077537537 0.49677345156669617 10.751362800598145 0 0 0
-0.39205220341682434 0.4209490120410919 10.708698272705078 0 0 0
-0.3915177285671234 0.4166651666164398 10.72430419921875 0 0 0
-0.38892748951911926 0.4239494800567627 10.698260307312012 0 0 0
-0.38899165391921997 0.419839084148407 10.70923900604248 0 0 0
-0.38899165391921997 0.419839084148407 10.70923900604248 0 0 0
-0.3849656283855438 0.42987480759620667 10.681526184082031 0 0 0
-0.38498103618621826 0.4270285964012146 10.69033145904541 0 0 0
-0.3747386336326599 0.42500966787338257 10.785265922546387 0 0 0
-0.3708500564098358 0.4263637661933899 10.68716049194336 0 0 0
-0.3646623492240906 0.42143765091896057 10.70479679107666 0 0 0
-0.36221954226493835 0.33490464091300964 10.951584815979004 0 0 0
-0.35010960698127747 0.4255927503108978 10.686017036437988 0 0 0
-0.35010960698127747 0.4255927503108978 10.686017036437988 0 0 0
-0.34360039234161377 0.4254738390445709 10.674266815185547 0 0 0
-0.3429952561855316 0.4179791510105133 10.701025009155273 0 0 0
-0.34186774492263794 0.4210030734539032 10.693167686462402 0 0 0
-0.34048715233802795 0.42392852902412415 10.684094429016113 0 0 0
-0.33236485719680786 0.41679736971855164 10.701193809509277 0 0 0
-0.3313608169555664 0.4260115623474121 10.67098617553711 0 0 0
-0.33142897486686707 0.4205034077167511 10.696307182312012 0 0 0
-0.3295705318450928 0.4259437620639801 10.674994468688965 0 0 0
-0.32467642426490784 0.3747921586036682 10.836737632751465 0 0 0
-0.31448763608932495 0.4207610487937927 10.685842514038086 0 0 0
-0.313001811504364 0.42317473888397217 10.678255081176758 0 0 0
-0.30956029891967773 0.4205658435821533 10.683667182922363 0 0 0
-0.3157802224159241 0.641970157623291 10.852141380310059 0 0 0
-0.30148845911026 0.42842578887939453 10.659077644348145 0 0 0
-0.30332058668136597 0.389035165309906 10.78136157989502 0 0 0
-0.3059007525444031 0.6382090449333191 10.837687492370605 0 0 0
-0.2929072380065918 0.43426451086997986 10.623506546020508 0 0 0
-0.29712894558906555 0.3462965190410614 10.924781799316406 0 0 0
-0.2898675501346588 0.42525768280029297 10.664521217346191 0 0 0
-0.2895582616329193 0.3690936267375946 10.8467378616333 0 0 0
-0.28258612751960754 0.3833451271057129 10.795353889465332 0 0 0
-0.27294546365737915 0.42275843024253845 10.664496421813965 0 0 0
-0.271880179643631 0.40205925703048706 10.736913681030273 0 0 0
-0.26520195603370667 0.4287126958370209 10.646815299987793 0 0 0
-0.2530338168144226 0.42755845189094543 10.646931648254395 0 0 0
-0.24713540077209473 0.4307542145252228 10.646310806274414 0 0 0
-0.24222537875175476 0.4223465323448181 10.660717010498047 0 0 0
-0.22853803634643555 0.4296669065952301 10.635015487670898 0 0 0
-0.2270081341266632 0.41802892088890076 10.667093276977539 0 0 0
-0.22540321946144104 0.4273896813392639 10.640875816345215 0 0 0
-0.22406208515167236 0.41990453004837036 10.665886878967285 0 0 0
-0.227866530418396 0.3036451041698456 11.049386024475098 0 0 0
-0.22208747267723083 0.4323790371417999 10.637578964233398 0 0 0
-0.22193174064159393 0.4305804669857025 10.637269020080566 0 0 0
-0.22112329304218292 0.40080615878105164 10.723601341247559 0 0 0
-0.2189515084028244 0.4329681396484375 10.635331153869629 0 0 0
-0.2189515084028244 0.4329681396484375 10.635331153869629 0 0 0
-0.22444447875022888 0.3033255338668823 11.055953025817871 0 0 0
-0.21955357491970062 0.354225754737854 10.881972312927246 0 0 0
-0.21586085855960846 0.42187565565109253 10.657052993774414 0 0 0
-0.22096824645996094 0.306252121925354 11.047246932983398 0 0 0
-0.21132606267929077 0.4289337396621704 10.635757446289062 0 0 0
-0.214439257979393 0.3255500793457031 10.973663330078125 0 0 0
-0.214439257979393 0.3255500793457031 10.973663330078125 0 0 0
-0.21242621541023254 0.3558940887451172 10.870266914367676 0 0 0
-0.2037571370601654 0.4317616820335388 10.632523536682129 0 0 0
-0.20201078057289124 0.42268601059913635 10.650382041931152 0 0 0
-0.20451253652572632 0.3204171061515808 10.99243450164795 0 0 0
-0.19824565947055817 0.39528223872184753 10.739893913269043 0 0 0
-0.19500355422496796 0.3958524465560913 10.737377166748047 0 0 0
-0.19308647513389587 0.400536447763443 10.72072982788086 0 0 0
-0.1935010701417923 0.3732675313949585 10.807724952697754 0 0 0
-0.19108086824417114 0.4222843050956726 10.646799087524414 0 0 0
-0.186435729265213 0.4317663609981537 10.625513076782227 0 0 0
-0.18361955881118774 0.4237390458583832 10.648079872131348 0 0 0
-0.17359471321105957 0.38689473271369934 10.757782936096191 0 0 0
-0.17359471321105957 0.38689473271369934 10.757782936096191 0 0 0
-0.17450237274169922 0.34562456607818604 10.902107238769531 0 0 0
-0.16063708066940308 0.3034619092941284 11.045119285583496 0 0 0
-0.1543394923210144 0.43287625908851624 10.618120193481445 0 0 0
-0.1525799036026001 0.43082982301712036 10.620002746582031 0 0 0
-0.1525799036026001 0.43082982301712036 10.620002746582031 0 0 0
-0.15175557136535645 0.43494710326194763 10.606454849243164 0 0 0
-0.1456354707479477 0.42963773012161255 10.623772621154785 0 0 0
-0.1456347405910492 0.3915584087371826 10.738761901855469 0 0 0
-0.1459869146347046 0.30263274908065796 11.043582916259766 0 0 0
-0.13647982478141785 0.4317854642868042 10.606188774108887 0 0 0
-0.13439299166202545 0.3896142244338989 10.741971969604492 0 0 0
-0.13061490654945374 0.42759689688682556 10.616865158081055 0 0 0
-0.12461379915475845 0.4296555519104004 10.612805366516113 0 0 0
-0.12105830758810043 0.4308636486530304 10.608332633972168 0 0 0
-0.11926330626010895 0.3219931423664093 10.975367546081543 0 0 0
-0.11926330626010895 0.3219931423664093 10.975367546081543 0 0 0
-0.1181105524301529 0.3278857469558716 10.949772834777832 0 0 0
-0.11329720169305801 0.4318218529224396 10.602925300598145 0 0 0
-0.10979051142930984 0.43374964594841003 10.592905044555664 0 0 0
-0.09914950281381607 0.4329412281513214 10.593619346618652 0 0 0
-0.09132999181747437 0.4415058493614197 10.581483840942383 0 0 0
-0.08252077549695969 0.4282544255256653 10.609390258789062 0 0 0
-0.08140862733125687 0.4246807098388672 10.617766380310059 0 0 0
-0.08134891837835312 0.4353945255279541 10.59231948852539 0 0 0
-0.0780501663684845 0.3796757757663727 10.76473617553711 0 0 0
-0.0757087990641594 0.43353626132011414 10.602313995361328 0 0 0
-0.07765902578830719 0.6392971277236938 10.772940635681152 0 0 0
-0.06948701292276382 0.425200879573822 10.613401412963867 0 0 0
-0.06886279582977295 0.4353540539741516 10.59498119354248 0 0 0
-0.06433018296957016 0.3983300030231476 10.698978424072266 0 0 0
-0.0635603666305542 0.42863729596138 10.607513427734375 0 0 0
-0.06911041587591171 0.6452414393424988 10.755615234375 0 0 0
-0.056455258280038834 0.4246094524860382 10.612874984741211 0 0 0
-0.05489295721054077 0.4323577880859375 10.59355354309082 0 0 0
-0.05238347128033638 0.4071207046508789 10.669361114501953 0 0 0
-0.0502852126955986 0.38359344005584717 10.748262405395508 0 0 0
-0.0502852126955986 0.38359344005584717 10.748262405395508 0 0 0
-0.03847528249025345 0.42466023564338684 10.604141235351562 0 0 0
-0.03429434075951576 0.43016934394836426 10.588316917419434 0 0 0
-0.032977502793073654 0.4373060464859009 10.583168983459473 0 0 0
-0.030163459479808807 0.4309477210044861 10.590578079223633 0 0 0
-0.025197718292474747 0.40206730365753174 10.677868843078613 0 0 0
-0.02210365980863571 0.4030807912349701 10.67343521118164 0 0 0
-0.01801774837076664 0.43023553490638733 10.584211349487305 0 0 0
-0.018073268234729767 0.43278422951698303 10.581573486328125 0 0 0
-0.014438314363360405 0.43381866812705994 10.576226234436035 0 0 0
-0.010542761534452438 0.4409237802028656 10.560904502868652 0 0 0
-0.004013788886368275 0.43446940183639526 10.573144912719727 0 0 0
0.0014854192268103361 0.4323289096355438 10.577791213989258 0 0 0
0.007294939365237951 0.43417513370513916 10.570457458496094 0 0 0
0.007472943048924208 0.4310681223869324 10.57742691040039 0 0 0
0.0107738571241498 0.37228697538375854 10.777501106262207 0 0 0
0.011969216167926788 0.43171268701553345 10.579071044921875 0 0 0
0.016251368448138237 0.4271244704723358 10.588701248168945 0 0 0
0.0174416471272707 0.3879157602787018 10.717114448547363 0 0 0
0.020065121352672577 0.3993222415447235 10.677876472473145 0 0 0
0.02048695832490921 0.3953796625137329 10.694843292236328 0 0 0
0.05287282541394234 0.43430936336517334 10.557456016540527 0 0 0
0.05627283453941345 0.41975781321525574 10.604547500610352 0 0 0
0.1060393825173378 0.4353204667568207 10.545748710632324 0 0 0
0.11593318730592728 0.43523043394088745 10.541056632995605 0 0 0
0.12208907306194305 0.4193068742752075 10.597082138061523 0 0 0
0.12271425127983093 0.4222392737865448 10.584603309631348 0 0 0
0.12407808005809784 0.42781737446784973 10.568312644958496 0 0 0
0.12735290825366974 0.4167996048927307 10.600890159606934 0 0 0
0.13193391263484955 0.4359433352947235 10.549901008605957 0 0 0
0.13178543746471405 0.44260653853416443 10.525904655456543 0 0 0
0.1364271640777588 0.4403221607208252 10.543947219848633 0 0 0
0.13942444324493408 0.44247350096702576 10.544352531433105 0 0 0
0.1371808499097824 0.6484045386314392 10.700998306274414 0 0 0
0.14350363612174988 0.4451856017112732 10.543712615966797 0 0 0
0.14692506194114685 0.43312016129493713 10.543058395385742 0 0 0
0.1472882330417633 0.44214722514152527 10.563982009887695 0 0 0
0.14744789898395538 0.4453306198120117 10.551167488098145 0 0 0
0.1571470946073532 0.44454196095466614 10.539372444152832 0 0 0
0.15816842019557953 0.43665358424186707 10.543099403381348 0 0 0
0.1600068360567093 0.4413970112800598 10.544891357421875 0 0 0
0.161185622215271 0.6464492082595825 10.713358879089355 0 0 0
0.1645956188440323 0.44216546416282654 10.539224624633789 0 0 0
0.1699036955833435 0.4477919340133667 10.527090072631836 0 0 0
0.1721210926771164 0.43512094020843506 10.54593276977539 0 0 0
0.1761580854654312 0.38623303174972534 10.694085121154785 0 0 0
0.17307427525520325 0.4376065135002136 10.535724639892578 0 0 0
0.1760607212781906 0.44110602140426636 10.535148620605469 0 0 0
0.1760607212781906 0.44110602140426636 10.535148620605469 0 0 0
0.17707110941410065 0.44707560539245605 10.527677536010742 0 0 0
0.17882823944091797 0.4358256757259369 10.53311538696289 0 0 0
0.1788288801908493 0.4446159899234772 10.533347129821777 0 0 0
0.1816057562828064 0.43650001287460327 10.53895378112793 0 0 0
0.18637843430042267 0.44625094532966614 10.528425216674805 0 0 0
0.1881089061498642 0.44040581583976746 10.534420013427734 0 0 0
0.19470955431461334 0.44006407260894775 10.532795906066895 0 0 0
0.19519196450710297 0.43550366163253784 10.533206939697266 0 0 0
0.19558511674404144 0.43268871307373047 10.537759780883789 0 0 0
0.1967194527387619 0.44354304671287537 10.531155586242676 0 0 0
0.19739893078804016 0.4311924874782562 10.539534568786621 0 0 0
0.20081891119480133 0.40124836564064026 10.640231132507324 0 0 0
0.2004528045654297 0.4465339779853821 10.529125213623047 0 0 0
0.19995377957820892 0.6499772667884827 10.692543029785156 0 0 0
0.20184999704360962 0.4396476745605469 10.530685424804688 0 0 0
0.20283403992652893 0.4443421959877014 10.530091285705566 0 0 0
0.20820388197898865 0.6471908688545227 10.696460723876953 0 0 0
0.20820388197898865 0.6471908688545227 10.696460723876953 0 0 0
0.21647422015666962 0.44397783279418945 10.524870872497559 0 0 0
0.21991987526416779 0.40270981192588806 10.63436222076416 0 0 0
0.218927264213562 0.43994709849357605 10.526339530944824 0 0 0
0.2201743721961975 0.43730831146240234 10.528295516967773 0 0 0
0.21996735036373138 0.4465821087360382 10.51752758026123 0 0 0
0.22476154565811157 0.44885435700416565 10.520894050598145 0 0 0
0.22815807163715363 0.43434789776802063 10.533703804016113 0 0 0
0.22815807163715363 0.43434789776802063 10.533703804016113 0 0 0
0.230735182762146 0.4337328374385834 10.532410621643066 0 0 0
0.23382030427455902 0.4354257881641388 10.526917457580566 0 0 0
0.23604673147201538 0.43290019035339355 10.533492088317871 0 0 0
0.23563367128372192 0.4430403411388397 10.521183013916016 0 0 0
0.24052660167217255 0.4323309361934662 10.533407211303711 0 0 0
0.2401847541332245 0.4463576674461365 10.51787281036377 0 0 0
0.24327027797698975 0.6522892117500305 10.651537895202637 0 0 0
0.24714648723602295 0.43215203285217285 10.533011436462402 0 0 0
0.24714648723602295 0.43215203285217285 10.533011436462402 0 0 0
0.24705225229263306 0.44121459126472473 10.52088737487793 0 0 0
0.24682264029979706 0.6490402221679688 10.660138130187988 0 0 0
0.24933868646621704 0.4368053376674652 10.522048950195312 0 0 0
0.24933868646621704 0.4368053376674652 10.522048950195312 0 0 0
0.2509346604347229 0.43188169598579407 10.533583641052246 0 0 0
0.2578839063644409 0.37026435136795044 10.740767478942871 0 0 0
0.26002269983291626 0.37620729207992554 10.720541954040527 0 0 0
0.25275737047195435 0.6455681324005127 10.66269588470459 0 0 0
0.2524915337562561 0.6508945226669312 10.655292510986328 0 0 0
0.2616191506385803 0.36721134185791016 10.755468368530273 0 0 0
0.25602421164512634 0.4339428246021271 10.523210525512695 0 0 0
0.25576701760292053 0.645487368106842 10.662242889404297 0 0 0
0.2651793956756592 0.3753390610218048 10.726974487304688 0 0 0
0.2586129903793335 0.648579478263855 10.658990859985352 0 0 0
0.2618301212787628 0.43467968702316284 10.523690223693848 0 0 0
0.262597918510437 0.4300251305103302 10.532435417175293 0 0 0
0.2692438066005707 0.3860284090042114 10.688684463500977 0 0 0
0.2629757225513458 0.6493019461631775 10.65158462524414 0 0 0
0.2703094482421875 0.43929359316825867 10.521049499511719 0 0 0
0.2747499346733093 0.44318434596061707 10.511874198913574 0 0 0
0.2754906415939331 0.6489185094833374 10.645359992980957 0 0 0
0.2795265316963196 0.4151190221309662 10.583085060119629 0 0 0
0.27766358852386475 0.4329064190387726 10.527406692504883 0 0 0
0.27867117524147034 0.43964195251464844 10.515678405761719 0 0 0
0.2785835564136505 0.44303736090660095 10.51265811920166 0 0 0
0.279046893119812 0.44254857301712036 10.506463050842285 0 0 0
0.2848931550979614 0.4125942587852478 10.597524642944336 0 0 0
0.28331369161605835 0.4306192398071289 10.533743858337402 0 0 0
0.28557994961738586 0.6430003643035889 10.654423713684082 0 0 0
0.28703993558883667 0.4304012656211853 10.528828620910645 0 0 0
0.2877405285835266 0.4465523660182953 10.507722854614258 0 0 0
0.28942275047302246 0.43775275349617004 10.517751693725586 0 0 0
0.2899974286556244 0.6446494460105896 10.653205871582031 0 0 0
0.29138267040252686 0.4374902546405792 10.51835823059082 0 0 0
0.29356080293655396 0.4359453022480011 10.5215482711792 0 0 0
0.293450266122818 0.4419865310192108 10.509620666503906 0 0 0
0.2960648834705353 0.4395328760147095 10.510668754577637 0 0 0
0.2970624268054962 0.43707630038261414 10.507145881652832 0 0 0
0.29827016592025757 0.4437503218650818 10.507715225219727 0 0 0
0.29947417974472046 0.6417068839073181 10.658546447753906 0 0 0
0.3064318597316742 0.3947223126888275 10.65746784210205 0 0 0
0.3021175265312195 0.43248745799064636 10.525972366333008 0 0 0
0.3045498728752136 0.43392226099967957 10.522342681884766 0 0 0
0.30476245284080505 0.4427724778652191 10.50312328338623 0 0 0
0.3072541356086731 0.4364526867866516 10.52263355255127 0 0 0
0.3092173933982849 0.4442988932132721 10.495035171508789 0 0 0
0.31031709909439087 0.43768057227134705 10.518230438232422 0 0 0
0.31031501293182373 0.6386826038360596 10.659991264343262 0 0 0
0.3096587657928467 0.44991517066955566 10.497657775878906 0 0 0
0.31010282039642334 0.44697636365890503 10.50320816040039 0 0 0
0.31368085741996765 0.6450446248054504 10.65450382232666 0 0 0
0.31368085741996765 0.6450446248054504 10.65450382232666 0 0 0
0.3148745000362396 0.6389175653457642 10.660372734069824 0 0 0
0.3148745000362396 0.6389175653457642 10.660372734069824 0 0 0
0.31685611605644226 0.44371774792671204 10.496881484985352 0 0 0
0.31873735785484314 0.4400886297225952 10.510848045349121 0 0 0
0.31925341486930847 0.43855249881744385 10.511207580566406 0 0 0
0.32191044092178345 0.4343824088573456 10.52192211151123 0 0 0
0.3297215700149536 0.38959556818008423 10.671346664428711 0 0 0
0.3244379460811615 0.4388584792613983 10.505961418151855 0 0 0
0.32495972514152527 0.44199031591415405 10.509754180908203 0 0 0
0.3326913118362427 0.3883528411388397 10.674483299255371 0 0 0
0.3326913118362427 0.3883528411388397 10.674483299255371 0 0 0
0.3285865783691406 0.43652573227882385 10.514639854431152 0 0 0
0.32870253920555115 0.4434414505958557 10.499774932861328 0 0 0
0.33515530824661255 0.4416103661060333 10.500448226928711 0 0 0
0.3396568298339844 0.4252653121948242 10.546960830688477 0 0 0
0.33817893266677856 0.4433915615081787 10.499160766601562 0 0 0
0.3399459719657898 0.44143494963645935 10.504905700683594 0 0 0
0.34711864590644836 0.4384465217590332 10.499942779541016 0 0 0
0.351458340883255 0.4460713267326355 10.504477500915527 0 0 0
0.35541579127311707 0.4425395429134369 10.496818542480469 0 0 0
0.3612847626209259 0.6218430995941162 10.63204574584961 0 0 0
0.3731291890144348 0.6227824687957764 10.629854202270508 0 0 0
0.37323054671287537 0.5362430810928345 10.560051918029785 0 0 0
0.37797537446022034 0.6110799908638 10.62192153930664 0 0 0
0.379307359457016 0.5974230170249939 10.603633880615234 0 0 0
0.3820565342903137 0.6101840734481812 10.627346992492676 0 0 0
0.38267189264297485 0.44327735900878906 10.49317455291748 0 0 0
0.3846937417984009 0.6106379628181458 10.627168655395508 0 0 0
0.38482344150543213 0.5819904208183289 10.592310905456543 0 0 0
0.3853706419467926 0.5894336104393005 10.601978302001953 0 0 0
0.3848611116409302 0.5355322957038879 10.555480003356934 0 0 0
0.38540366291999817 0.5098738074302673 10.534672737121582 0 0 0
0.3860708177089691 0.4425031542778015 10.492685317993164 0 0 0
0.390878826379776 0.4104827046394348 10.602370262145996 0 0 0
0.38722944259643555 0.5897179841995239 10.602346420288086 0 0 0
0.3908413350582123 0.5715963840484619 10.583478927612305 0 0 0
0.39361003041267395 0.5807702541351318 10.59477424621582 0 0 0
0.39903524518013 0.40508291125297546 10.633432388305664 0 0 0
0.3990459740161896 0.4050865173339844 10.633210182189941 0 0 0
0.39427849650382996 0.5106391310691833 10.537692070007324 0 0 0
0.39485037326812744 0.5598169565200806 10.577533721923828 0 0 0
0.395128458738327 0.495742529630661 10.524645805358887 0 0 0
0.3963741362094879 0.5553233027458191 10.57796859741211 0 0 0
0.39889952540397644 0.5081482529640198 10.540356636047363 0 0 0
0.3990413248538971 0.491474986076355 10.520400047302246 0 0 0
0.39864420890808105 0.45773419737815857 10.490890502929688 0 0 0
0.4035099446773529 0.4963133931159973 10.524542808532715 0 0 0
0.40351781249046326 0.4871618449687958 10.515260696411133 0 0 0
0.4046681225299835 0.49045225977897644 10.523679733276367 0 0 0
0.4058120548725128 0.44604453444480896 10.486650466918945 0 0 0
0.4096985459327698 0.44116896390914917 10.502080917358398 0 0 0
0.40969982743263245 0.4467776119709015 10.49635124206543 0 0 0
0.4110437035560608 0.4393600821495056 10.514150619506836 0 0 0
