ply
format ascii 1.0
element vertex 410
property float x
property float y
property float z
property uchar red
property uchar green
property uchar blue
end_header
-0.6454208493232727 1.0229530334472656 0.6919107437133789 0 0 0
-0.6390585899353027 1.0233839750289917 0.6924686431884766 0 0 0
-0.639445960521698 1.0146441459655762 0.7009115219116211 0 0 0
-0.639445960521698 1.0146441459655762 0.7009115219116211 0 0 0
-0.6373139023780823 1.0074105262756348 0.7245988845825195 0 0 0
-0.6372799873352051 1.0056772232055664 0.7288408279418945 0 0 0
-0.6287277936935425 1.0120060443878174 0.7066411972045898 0 0 0
-0.625156819820404 1.0128169059753418 0.7071123123168945 0 0 0
-0.6380846500396729 0.9585834741592407 0.9084997177124023 0 0 0
-0.6371098756790161 0.9564946293830872 0.9152288436889648 0 0 0
-0.6212905049324036 1.0112215280532837 0.7111215591430664 0 0 0
-0.6194139122962952 1.0150847434997559 0.6924409866333008 0 0 0
-0.6159064769744873 1.0229086875915527 0.6816921234130859 0 0 0
-0.6143937110900879 1.0257097482681274 0.6591825485229492 0 0 0
-0.6117106080055237 1.0151278972625732 0.6962614059448242 0 0 0
-0.6012738347053528 1.0276401042938232 0.6658620834350586 0 0 0
-0.619568943977356 0.936132550239563 0.9772005081176758 0 0 0
-0.619568943977356 0.936132550239563 0.9772005081176758 0 0 0
-0.6022374033927917 1.2157623767852783 0.7901029586791992 0 0 0
-0.5943336486816406 1.0160413980484009 0.6935834884643555 0 0 0
-0.5925812721252441 1.0230889320373535 0.6904182434082031 0 0 0
-0.5869553089141846 1.015977382659912 0.6951351165771484 0 0 0
-0.584594190120697 1.015076994895935 0.7039155960083008 0 0 0
-0.583217203617096 1.0131793022155762 0.7029695510864258 0 0 0
-0.5711386799812317 1.0218333005905151 0.6946525573730469 0 0 0
-0.5674075484275818 1.0165776014328003 0.6985759735107422 0 0 0
-0.5719621181488037 0.9812622666358948 0.8244094848632812 0 0 0
-0.5624926090240479 1.0240960121154785 0.6845493316650391 0 0 0
-0.5540672540664673 1.0262477397918701 0.6680450439453125 0 0 0
-0.5671749711036682 0.9605503082275391 0.8934841156005859 0 0 0
-0.5536211729049683 1.0201847553253174 0.6912727355957031 0 0 0
-0.5530531406402588 1.016396403312683 0.6958723068237305 0 0 0
-0.5516047477722168 1.005367398262024 0.7325315475463867 0 0 0
-0.5467844605445862 1.054315447807312 0.6854581832885742 0 0 0
-0.5529949069023132 0.9760628342628479 0.8426656723022461 0 0 0
-0.5503953695297241 0.9758936762809753 0.8415412902832031 0 0 0
-0.5408440828323364 1.0224995613098145 0.6923532485961914 0 0 0
-0.5391902923583984 1.0192451477050781 0.6913270950317383 0 0 0
-0.5362025499343872 1.0164607763290405 0.6933012008666992 0 0 0
-0.5381842851638794 1.2118101119995117 0.8013896942138672 0 0 0
-0.5381842851638794 1.2118101119995117 0.8013896942138672 0 0 0
-0.5383867621421814 1.211930513381958 0.8182172775268555 0 0 0
-0.5383867621421814 1.211930513381958 0.8182172775268555 0 0 0
-0.5309689044952393 1.0207172632217407 0.6962213516235352 0 0 0
-0.5309689044952393 1.0207172632217407 0.6962213516235352 0 0 0
-0.5280790328979492 1.0164034366607666 0.6942672729492188 0 0 0
-0.525547206401825 1.012298345565796 0.7017126083374023 0 0 0
-0.525547206401825 1.012298345565796 0.7017126083374023 0 0 0
-0.5236321091651917 1.02106773853302 0.7004261016845703 0 0 0
-0.516645610332489 1.0007565021514893 0.7555160522460938 0 0 0
-0.5096955299377441 1.0251718759536743 0.669896125793457 0 0 0
-0.5091902017593384 1.0172598361968994 0.6939010620117188 0 0 0
-0.5076844692230225 1.020641565322876 0.694096565246582 0 0 0
-0.506493866443634 1.0162007808685303 0.7009382247924805 0 0 0
-0.5153666138648987 0.9639350175857544 0.8869161605834961 0 0 0
-0.5022991895675659 1.0347046852111816 0.6632633209228516 0 0 0
-0.5085663795471191 1.2159769535064697 0.8040304183959961 0 0 0
-0.5085663795471191 1.2159769535064697 0.8040304183959961 0 0 0
-0.5036218166351318 1.0121979713439941 0.7128801345825195 0 0 0
-0.4970546364784241 1.0195205211639404 0.6866750717163086 0 0 0
-0.5015826225280762 1.2180359363555908 0.8008632659912109 0 0 0
-0.5015826225280762 1.2180359363555908 0.8008632659912109 0 0 0
-0.45623016357421875 0.9474034309387207 0.0 0 0 0
-0.49020516872406006 1.0262707471847534 0.6820125579833984 0 0 0
-0.4858761131763458 1.0276517868041992 0.6747932434082031 0 0 0
-0.48410022258758545 1.0238523483276367 0.6924705505371094 0 0 0
-0.4797587990760803 1.0279401540756226 0.6805667877197266 0 0 0
-0.47737348079681396 1.009121060371399 0.7250308990478516 0 0 0
-0.4730556905269623 1.0250849723815918 0.6823272705078125 0 0 0
-0.48049670457839966 0.9711450338363647 0.8612890243530273 0 0 0
-0.4708554148674011 1.0322431325912476 0.674321174621582 0 0 0
-0.47137686610221863 1.0200722217559814 0.6938934326171875 0 0 0
-0.46665993332862854 1.0205955505371094 0.6959199905395508 0 0 0
-0.45998287200927734 1.0251965522766113 0.6825141906738281 0 0 0
-0.457028329372406 1.0197738409042358 0.6933097839355469 0 0 0
-0.45128926634788513 1.221447229385376 0.8082904815673828 0 0 0
-0.444257527589798 1.022589921951294 0.6932582855224609 0 0 0
-0.44180309772491455 1.0238070487976074 0.6827049255371094 0 0 0
-0.4359104037284851 1.0219719409942627 0.6929950714111328 0 0 0
-0.43115222454071045 1.024498701095581 0.6909341812133789 0 0 0
-0.4303431808948517 1.0287617444992065 0.6816091537475586 0 0 0
-0.4279598593711853 1.0271239280700684 0.6825332641601562 0 0 0
-0.4278826117515564 1.0225300788879395 0.695927619934082 0 0 0
-0.42535755038261414 1.025099277496338 0.6861438751220703 0 0 0
-0.43149054050445557 0.9781659245491028 0.8348979949951172 0 0 0
-0.4323682487010956 0.9730580449104309 0.8558797836303711 0 0 0
-0.4226287603378296 1.027961015701294 0.6832704544067383 0 0 0
-0.42021235823631287 1.0253390073776245 0.6904611587524414 0 0 0
-0.424473375082016 0.9724953770637512 0.8627119064331055 0 0 0
-0.4235296845436096 0.9735842943191528 0.8573942184448242 0 0 0
-0.41597452759742737 1.02006196975708 0.6929893493652344 0 0 0
-0.41609951853752136 1.0188868045806885 0.6974945068359375 0 0 0
-0.41543465852737427 1.2196675539016724 0.8119115829467773 0 0 0
-0.9012110829353333 2.6456236839294434 11.822795867919922 0 0 0
-0.4170224070549011 0.972017765045166 0.8649358749389648 0 0 0
-0.40801921486854553 1.015622854232788 0.7103233337402344 0 0 0
-0.4054008722305298 1.0184423923492432 0.6986532211303711 0 0 0
-0.4054008722305298 1.0184423923492432 0.6986532211303711 0 0 0
-0.4107033908367157 0.9737839698791504 0.854670524597168 0 0 0
-0.4000437259674072 1.0234341621398926 0.6889152526855469 0 0 0
-0.3937549591064453 1.0231983661651611 0.6932220458984375 0 0 0
-0.3939476013183594 0.9744927287101746 0.8557586669921875 0 0 0
-0.38111811876296997 1.0226633548736572 0.6939220428466797 0 0 0
-0.38586047291755676 0.9865943789482117 0.8141279220581055 0 0 0
-0.38404130935668945 0.9671379327774048 0.8795986175537109 0 0 0
-0.3831664025783539 0.9691894054412842 0.8837423324584961 0 0 0
-0.3726375102996826 1.0280447006225586 0.6856536865234375 0 0 0
-0.3745049238204956 1.0839776992797852 0.7331924438476562 0 0 0
-0.367423951625824 1.0128577947616577 0.7248916625976562 0 0 0
-0.36507683992385864 1.0180338621139526 0.7050209045410156 0 0 0
-0.3652169704437256 1.0149576663970947 0.7138633728027344 0 0 0
-0.3652169704437256 1.0149576663970947 0.7138633728027344 0 0 0
-0.361570805311203 1.0224791765213013 0.6927919387817383 0 0 0
-0.3616601526737213 1.020419716835022 0.7000141143798828 0 0 0
-0.35862672328948975 0.9699720740318298 0.8750152587890625 0 0 0
-0.3496624827384949 1.0199251174926758 0.7026510238647461 0 0 0
-0.35267484188079834 0.9664810299873352 0.8907060623168945 0 0 0
-0.34446248412132263 1.0165245532989502 0.7185859680175781 0 0 0
-0.3193804919719696 0.7061578631401062 0.216644287109375 0 0 0
-0.34413787722587585 0.9525790810585022 0.9167089462280273 0 0 0
-0.31542715430259705 0.6992302536964417 0.21683406829833984 0 0 0
-0.3319905996322632 1.0195199251174927 0.7089195251464844 0 0 0
-0.3319905996322632 1.0195199251174927 0.7089195251464844 0 0 0
-0.32642993330955505 1.0189470052719116 0.7019920349121094 0 0 0
-0.32610026001930237 1.0136797428131104 0.7238130569458008 0 0 0
-0.3250631093978882 1.0159685611724854 0.7177667617797852 0 0 0
-0.32381609082221985 1.0181204080581665 0.7109127044677734 0 0 0
-0.3170474171638489 1.0128147602081299 0.7276992797851562 0 0 0
-0.3159918487071991 1.0194798707962036 0.7038812637329102 0 0 0
-0.31616026163101196 1.0158461332321167 0.7238483428955078 0 0 0
-0.31447187066078186 1.019648551940918 0.7076864242553711 0 0 0
-0.3113601803779602 0.9825360178947449 0.8383455276489258 0 0 0
-0.30169424414634705 1.0158557891845703 0.7217922210693359 0 0 0
-0.3003685772418976 1.0176372528076172 0.7162103652954102 0 0 0
-0.2974749505519867 1.0156512260437012 0.7217569351196289 0 0 0
-0.29758861660957336 1.2174444198608398 0.8259687423706055 0 0 0
-0.2904148995876312 1.021538257598877 0.7050695419311523 0 0 0
-0.28928351402282715 1.2137712240219116 0.8190879821777344 0 0 0
-0.28292182087898254 1.025108814239502 0.6799335479736328 0 0 0
-0.2805229723453522 1.0191917419433594 0.7135295867919922 0 0 0
-0.28144630789756775 0.9784805774688721 0.8584003448486328 0 0 0
-0.2751650810241699 0.9886424541473389 0.8200950622558594 0 0 0
-0.2660582661628723 1.0172536373138428 0.7195329666137695 0 0 0
-0.2655937373638153 1.0024865865707397 0.7773904800415039 0 0 0
-0.2615971565246582 1.031322717666626 0.6988563537597656 0 0 0
-0.2593059539794922 1.021807074546814 0.7083330154418945 0 0 0
-0.24886839091777802 1.0209840536117554 0.7126674652099609 0 0 0
-0.24373240768909454 1.0238739252090454 0.7140007019042969 0 0 0
-0.2396838665008545 1.0172079801559448 0.7274150848388672 0 0 0
-0.23784437775611877 1.0210378170013428 0.7228689193725586 0 0 0
-0.23737487196922302 1.0152368545532227 0.7356138229370117 0 0 0
-0.22773092985153198 1.0226627588272095 0.7116842269897461 0 0 0
-0.226674884557724 1.0139325857162476 0.7378902435302734 0 0 0
-0.2250899076461792 1.0209871530532837 0.7175588607788086 0 0 0
-0.22412019968032837 1.015599012374878 0.7380619049072266 0 0 0
-0.22995427250862122 0.9313982129096985 1.039210319519043 0 0 0
-0.22201119363307953 1.0236748456954956 0.7155284881591797 0 0 0
-0.22199542820453644 1.0015031099319458 0.7847757339477539 0 0 0
-0.21941378712654114 1.0257619619369507 0.7151031494140625 0 0 0
-0.21941378712654114 1.0257619619369507 0.7151031494140625 0 0 0
-0.22703102231025696 0.9314754605293274 1.0454387664794922 0 0 0
-0.22168521583080292 0.9679887294769287 0.9103269577026367 0 0 0
-0.21699115633964539 1.0170345306396484 0.7337684631347656 0 0 0
-0.22398020327091217 0.9336669445037842 1.0397424697875977 0 0 0
-0.212916299700737 1.0223299264907837 0.7183160781860352 0 0 0
-0.21796542406082153 0.9472130537033081 0.9847211837768555 0 0 0
-0.21796542406082153 0.9472130537033081 0.9847211837768555 0 0 0
-0.21554258465766907 0.969015896320343 0.9039926528930664 0 0 0
-0.206337109208107 1.024810552597046 0.7183408737182617 0 0 0
-0.2050355076789856 1.0176609754562378 0.7334651947021484 0 0 0
-0.2095159888267517 0.9436829686164856 1.0024728775024414 0 0 0
-0.20241519808769226 0.99774569272995 0.8057212829589844 0 0 0
-0.2012844979763031 1.000182867050171 0.7955722808837891 0 0 0
-0.19959864020347595 0.9981712102890015 0.8047933578491211 0 0 0
-0.1978348046541214 1.0015466213226318 0.7922954559326172 0 0 0
-0.19882485270500183 0.9815950393676758 0.8610658645629883 0 0 0
-0.1956000179052353 1.0173015594482422 0.7344598770141602 0 0 0
-0.19138599932193756 1.0247713327407837 0.7190628051757812 0 0 0
-0.18913568556308746 1.0187780857086182 0.7380275726318359 0 0 0
-0.1897575557231903 0.8940019011497498 1.1914968490600586 0 0 0
-0.18134579062461853 0.9915546178817749 0.8288106918334961 0 0 0
-0.1830960512161255 0.9619542956352234 0.9420137405395508 0 0 0
-0.17794150114059448 0.9175792932510376 1.1071949005126953 0 0 0
-0.17794150114059448 0.9175792932510376 1.1071949005126953 0 0 0
-0.16358646750450134 1.0259207487106323 0.724400520324707 0 0 0
-0.16209755837917328 1.0242143869400024 0.7265205383300781 0 0 0
-0.16209755837917328 1.0242143869400024 0.7265205383300781 0 0 0
-0.16127362847328186 1.0272278785705566 0.7159442901611328 0 0 0
-0.15612691640853882 1.0234646797180176 0.7321243286132812 0 0 0
-0.15704169869422913 0.9951684474945068 0.8234033584594727 0 0 0
-0.15948139131069183 0.9310937523841858 1.0624094009399414 0 0 0
-0.14808659255504608 1.0246474742889404 0.7211894989013672 0 0 0
-0.14732305705547333 0.9937344789505005 0.8295936584472656 0 0 0
-0.1431058794260025 1.0215368270874023 0.7318544387817383 0 0 0
-0.13786965608596802 1.023288369178772 0.7308835983276367 0 0 0
-0.13475720584392548 1.0242120027542114 0.7286472320556641 0 0 0
-0.13589999079704285 0.9452106952667236 1.018080711364746 0 0 0
-0.13589999079704285 0.9452106952667236 1.018080711364746 0 0 0
-0.13475729525089264 0.9492170214653015 0.9986591339111328 0 0 0
-0.1279761642217636 1.0249199867248535 0.7269735336303711 0 0 0
-0.12485920637845993 1.0261999368667603 0.7201576232910156 0 0 0
-0.11562862247228622 1.025692105293274 0.7245302200317383 0 0 0
-0.10860492289066315 1.032840371131897 0.7169895172119141 0 0 0
-0.1003749668598175 1.019748330116272 0.7496500015258789 0 0 0
-0.10009147971868515 1.0281131267547607 0.7296714782714844 0 0 0
-0.106108158826828 0.8375365734100342 1.4176063537597656 0 0 0
-0.09521683305501938 1.0270057916641235 0.7392721176147461 0 0 0
-0.09294556081295013 1.2176556587219238 0.8537445068359375 0 0 0
-0.0899973213672638 1.020221471786499 0.7507266998291016 0 0 0
-0.08920229971408844 1.0283913612365723 0.7359132766723633 0 0 0
-0.08620133996009827 1.0004345178604126 0.8201065063476562 0 0 0
-0.08472020924091339 1.023066520690918 0.7476625442504883 0 0 0
-0.08427686244249344 0.9362795948982239 1.0632963180541992 0 0 0
-0.08427686244249344 0.9362795948982239 1.0632963180541992 0 0 0
-0.08427686244249344 0.9362795948982239 1.0632963180541992 0 0 0
-0.07708176225423813 1.025887370109558 0.7399835586547852 0 0 0
-0.07553596049547195 1.007013201713562 0.8006973266601562 0 0 0
-0.07287474721670151 0.8395736217498779 1.4159936904907227 0 0 0
-0.06291831284761429 1.019781470298767 0.7543373107910156 0 0 0
-0.06809721887111664 0.3901700973510742 1.505859375 0 0 0
-0.05911222845315933 1.0240060091018677 0.7431497573852539 0 0 0
-0.05779128521680832 1.0301365852355957 0.7389736175537109 0 0 0
-0.05548376962542534 1.0248668193817139 0.7461977005004883 0 0 0
-0.053054604679346085 1.0337004661560059 0.726862907409668 0 0 0
-0.06742025166749954 2.2717058658599854 4.283093452453613 0 0 0
-0.04485509917140007 1.0241200923919678 0.7455368041992188 0 0 0
-0.044835496693849564 1.0262587070465088 0.7431793212890625 0 0 0
-0.04163605347275734 1.0270062685012817 0.7404623031616211 0 0 0
-0.03802010416984558 1.032665729522705 0.7292261123657227 0 0 0
-0.03247163072228432 1.0275951623916626 0.7415151596069336 0 0 0
-0.02771453559398651 1.025998830795288 0.74725341796875 0 0 0
-0.022568926215171814 1.0274008512496948 0.7435626983642578 0 0 0
-0.022478431463241577 1.024937391281128 0.7490024566650391 0 0 0
-0.021276479586958885 0.9819713234901428 0.9074001312255859 0 0 0
-0.014889555051922798 1.0220856666564941 0.7610311508178711 0 0 0
-0.012347159907221794 1.0015186071395874 0.8327503204345703 0 0 0
-0.01209704764187336 0.998801589012146 0.846095085144043 0 0 0
0.007148166187107563 0.9726666808128357 0.25088024139404297 0 0 0
0.017542246729135513 1.027604341506958 0.7490568161010742 0 0 0
0.020101794973015785 1.016838550567627 0.7873401641845703 0 0 0
0.04506584256887436 1.0451887845993042 0.7535886764526367 0 0 0
0.06451491266489029 1.0287758111953735 0.758148193359375 0 0 0
0.06590927392244339 1.337443470954895 0.6255226135253906 0 0 0
0.07328121364116669 1.028625726699829 0.7579259872436523 0 0 0
0.07819352298974991 1.0170544385910034 0.804142951965332 0 0 0
0.08024082332849503 1.0233651399612427 0.7820796966552734 0 0 0
0.08278811722993851 1.0150550603866577 0.8089809417724609 0 0 0
0.08742368966341019 1.0299321413040161 0.770207405090332 0 0 0
0.08751346915960312 1.0348037481307983 0.7513761520385742 0 0 0
0.09152885526418686 1.0336416959762573 0.7666940689086914 0 0 0
0.09421508759260178 1.035658359527588 0.7680778503417969 0 0 0
0.09561479836702347 1.2279884815216064 0.8768062591552734 0 0 0
0.09788376092910767 1.0381380319595337 0.7688827514648438 0 0 0
0.10068929195404053 1.0272870063781738 0.7701053619384766 0 0 0
0.10108783841133118 1.036424994468689 0.786076545715332 0 0 0
0.10134968161582947 1.0386853218078613 0.7760200500488281 0 0 0
0.1099919006228447 1.037566900253296 0.7702369689941406 0 0 0
0.11072641611099243 1.0306522846221924 0.7738943099975586 0 0 0
0.11244666576385498 1.0350342988967896 0.7756023406982422 0 0 0
0.11656592786312103 1.0355230569839478 0.772674560546875 0 0 0
0.1214447095990181 1.040107250213623 0.764836311340332 0 0 0
0.12307380884885788 1.0296159982681274 0.7809171676635742 0 0 0
0.124010369181633 1.0313974618911743 0.773320198059082 0 0 0
0.1267443597316742 1.0345591306686401 0.7735729217529297 0 0 0
0.1267443597316742 1.0345591306686401 0.7735729217529297 0 0 0
0.12781080603599548 1.0395817756652832 0.7675647735595703 0 0 0
0.12910878658294678 1.0297452211380005 0.7732439041137695 0 0 0
0.12928363680839539 1.0376805067062378 0.7729225158691406 0 0 0
0.13157151639461517 1.0306605100631714 0.7785453796386719 0 0 0
0.13605187833309174 1.03904128074646 0.7716207504272461 0 0 0
0.13745315372943878 1.0340688228607178 0.7770586013793945 0 0 0
0.14566774666309357 0.5234479308128357 1.2915477752685547 0 0 0
0.1433204561471939 1.0337952375411987 0.7781915664672852 0 0 0
0.14365598559379578 1.0297092199325562 0.7789430618286133 0 0 0
0.14393891394138336 1.027374029159546 0.7825632095336914 0 0 0
0.14518719911575317 1.0368868112564087 0.7774076461791992 0 0 0
0.1455143541097641 1.026136040687561 0.7846441268920898 0 0 0
0.14748705923557281 1.0039336681365967 0.8648176193237305 0 0 0
0.14858192205429077 1.0395456552505493 0.7769250869750977 0 0 0
0.14968065917491913 1.0334270000457764 0.778996467590332 0 0 0
0.1506533920764923 1.0376510620117188 0.7786159515380859 0 0 0
0.15264755487442017 1.2558441162109375 0.8796796798706055 0 0 0
0.15855424106121063 1.2284475564956665 0.8991775512695312 0 0 0
0.15855424106121063 1.2284475564956665 0.8991775512695312 0 0 0
0.162824809551239 1.0372884273529053 0.7792835235595703 0 0 0
0.16454608738422394 1.0052239894866943 0.8665904998779297 0 0 0
0.16492660343647003 1.0337506532669067 0.7814292907714844 0 0 0
0.1659863144159317 1.0314624309539795 0.783329963684082 0 0 0
0.16603213548660278 1.0393435955047607 0.7746028900146484 0 0 0
0.16735990345478058 1.0369834899902344 0.7806644439697266 0 0 0
0.17033088207244873 1.0416381359100342 0.7788162231445312 0 0 0
0.1730133444070816 1.0291742086410522 0.7905073165893555 0 0 0
0.1730133444070816 1.0291742086410522 0.7905073165893555 0 0 0
0.17530009150505066 1.0286072492599487 0.7905464172363281 0 0 0
0.1781219094991684 1.0299147367477417 0.7871599197387695 0 0 0
0.17892488837242126 1.0917750597000122 0.8091926574707031 0 0 0
0.18002429604530334 1.0279755592346191 0.7931289672851562 0 0 0
0.1799270659685135 1.0365477800369263 0.7828683853149414 0 0 0
0.18326738476753235 1.232957363128662 0.8875188827514648 0 0 0
0.18402284383773804 1.0275076627731323 0.7944402694702148 0 0 0
0.1840675324201584 1.0394726991653442 0.7818164825439453 0 0 0
0.18994037806987762 1.0274149179458618 0.7962808609008789 0 0 0
0.18994037806987762 1.0274149179458618 0.7962808609008789 0 0 0
0.19008097052574158 1.035073161125183 0.7868080139160156 0 0 0
0.1931465119123459 1.229474663734436 0.8853244781494141 0 0 0
0.1920338273048401 1.031167984008789 0.7886419296264648 0 0 0
0.1920338273048401 1.031167984008789 0.7886419296264648 0 0 0
0.1933119148015976 1.0272610187530518 0.7981081008911133 0 0 0
0.19931989908218384 0.9858943223953247 0.9472808837890625 0 0 0
0.1983679234981537 1.226575493812561 0.8894243240356445 0 0 0
0.1982654333114624 1.2310761213302612 0.8835659027099609 0 0 0
0.20038646459579468 0.9794355034828186 0.9747419357299805 0 0 0
0.20104864239692688 1.226566195487976 0.8902673721313477 0 0 0
0.20387759804725647 0.9854621291160583 0.9537744522094727 0 0 0
0.20315255224704742 1.0295052528381348 0.7942304611206055 0 0 0
0.20371247828006744 1.0256917476654053 0.8011999130249023 0 0 0
0.20791739225387573 0.9933689832687378 0.9255294799804688 0 0 0
0.20761296153068542 1.2297285795211792 0.8845767974853516 0 0 0
0.20941200852394104 1.2293678522109985 0.8858480453491211 0 0 0
0.21013036370277405 1.2284036874771118 0.8835210800170898 0 0 0
0.2123272716999054 1.2275233268737793 0.8892078399658203 0 0 0
0.21084967255592346 1.0336781740188599 0.7947778701782227 0 0 0
0.2153834104537964 1.2316869497299194 0.8795661926269531 0 0 0
0.21495282649993896 1.036840558052063 0.7890501022338867 0 0 0
0.21882091462612152 1.2294143438339233 0.8843479156494141 0 0 0
0.21827007830142975 1.0148389339447021 0.846766471862793 0 0 0
0.21727843582630157 1.0282878875732422 0.8023319244384766 0 0 0
0.22055523097515106 1.2270705699920654 0.886927604675293 0 0 0
0.22055523097515106 1.2270705699920654 0.886927604675293 0 0 0
0.21836905181407928 1.0338752269744873 0.793553352355957 0 0 0
0.2183825522661209 1.036795735359192 0.7908926010131836 0 0 0
0.21882593631744385 1.0360647439956665 0.7862472534179688 0 0 0
0.2229536771774292 1.0132845640182495 0.8595256805419922 0 0 0
0.22394703328609467 1.2276071310043335 0.8883562088012695 0 0 0
0.2222549021244049 1.0265998840332031 0.8092737197875977 0 0 0
0.22767828404903412 1.2246934175491333 0.8951511383056641 0 0 0
0.22561690211296082 1.026226282119751 0.8067693710327148 0 0 0
0.22668300569057465 1.0398935079574585 0.7900857925415039 0 0 0
0.22796091437339783 1.0324066877365112 0.7987346649169922 0 0 0
0.23166407644748688 1.226251482963562 0.8958473205566406 0 0 0
0.2297114133834839 1.0322221517562866 0.7998313903808594 0 0 0
0.23160861432552338 1.031014323234558 0.8032197952270508 0 0 0
0.23169595003128052 1.0359370708465576 0.7937850952148438 0 0 0
0.23398511111736298 1.033801555633545 0.7956066131591797 0 0 0
0.2340388298034668 1.0390650033950806 0.7887420654296875 0 0 0
0.23607312142848969 1.0375051498413086 0.7937116622924805 0 0 0
0.24006223678588867 1.2240387201309204 0.9033966064453125 0 0 0
0.241531640291214 1.0002179145812988 0.913548469543457 0 0 0
0.23919528722763062 1.028198003768921 0.8095264434814453 0 0 0
0.2419009506702423 1.036510944366455 0.7925329208374023 0 0 0
0.2439023107290268 1.0317137241363525 0.8085241317749023 0 0 0
0.24598132073879242 1.0375806093215942 0.7877035140991211 0 0 0
0.2467069774866104 1.0326582193374634 0.8060245513916016 0 0 0
0.24969875812530518 1.221632480621338 0.9086551666259766 0 0 0
0.246470108628273 1.0428131818771362 0.7896862030029297 0 0 0
0.24677728116512299 1.0404112339019775 0.7942342758178711 0 0 0
0.2528787851333618 1.2272292375564575 0.9052886962890625 0 0 0
0.2528787851333618 1.2272292375564575 0.9052886962890625 0 0 0
0.25280776619911194 1.0372759103775024 0.7919788360595703 0 0 0
0.25436240434646606 1.0346201658248901 0.8030614852905273 0 0 0
0.2547951638698578 1.0332465171813965 0.8035411834716797 0 0 0
0.2570246160030365 1.030017614364624 0.8130426406860352 0 0 0
0.25948217511177063 1.0333741903305054 0.8014535903930664 0 0 0
0.25999489426612854 1.0363935232162476 0.8043050765991211 0 0 0
0.263103723526001 1.031735897064209 0.8097801208496094 0 0 0
0.26344403624534607 1.037313461303711 0.797968864440918 0 0 0
0.26920920610427856 1.0357722043991089 0.8006916046142578 0 0 0
0.2726343274116516 1.0231696367263794 0.8387012481689453 0 0 0
0.2719697654247284 1.037381649017334 0.8007164001464844 0 0 0
0.27348512411117554 1.0358959436416626 0.8057928085327148 0 0 0
0.27992191910743713 1.033036231994629 0.8043365478515625 0 0 0
0.2839411795139313 1.0402650833129883 0.8092021942138672 0 0 0
0.28749290108680725 1.0367404222488403 0.8046360015869141 0 0 0
0.29531487822532654 1.2063002586364746 0.9061698913574219 0 0 0
0.30490970611572266 1.125360131263733 0.8573522567749023 0 0 0
0.31021133065223694 1.1964131593704224 0.9045085906982422 0 0 0
0.3112735450267792 1.1831876039505005 0.8913087844848633 0 0 0
0.31383296847343445 1.195931077003479 0.9101781845092773 0 0 0
0.31211650371551514 1.0376321077346802 0.8108768463134766 0 0 0
0.3162086606025696 1.1964232921600342 0.9112348556518555 0 0 0
0.316036194562912 1.16871178150177 0.8847455978393555 0 0 0
0.3165986239910126 1.1759581565856934 0.8923501968383789 0 0 0
0.31542715430259705 1.124699354171753 0.8576498031616211 0 0 0
0.3155660629272461 1.1003623008728027 0.8424644470214844 0 0 0
0.31516677141189575 1.0369672775268555 0.8118219375610352 0 0 0
0.31827297806739807 1.1762852668762207 0.8933992385864258 0 0 0
0.31786710023880005 1.1229244470596313 0.8605775833129883 0 0 0
0.3213220536708832 1.1589725017547607 0.8804254531860352 0 0 0
0.3226335346698761 1.1454349756240845 0.8768463134765625 0 0 0
0.32391804456710815 1.167901873588562 0.8898534774780273 0 0 0
0.3251323997974396 1.0096476078033447 0.9253025054931641 0 0 0
0.3251432180404663 1.0096417665481567 0.9251499176025391 0 0 0
0.3235737085342407 1.1013494729995728 0.8477678298950195 0 0 0
0.3247508406639099 1.1480506658554077 0.877629280090332 0 0 0
0.32414910197257996 1.0871665477752686 0.838292121887207 0 0 0
0.3260384798049927 1.1439955234527588 0.8785457611083984 0 0 0
0.3259030878543854 1.0934057235717773 0.8395261764526367 0 0 0
0.32767999172210693 1.0992792844772339 0.8514623641967773 0 0 0
0.32774636149406433 1.1076030731201172 0.8513336181640625 0 0 0
0.32762789726257324 1.0831512212753296 0.8365516662597656 0 0 0
0.3268342614173889 1.050966739654541 0.814295768737793 0 0 0
0.33071768283843994 1.0938820838928223 0.8470325469970703 0 0 0
0.33172914385795593 1.0878349542617798 0.8411769866943359 0 0 0
0.3316291868686676 1.079046607017517 0.8341655731201172 0 0 0
0.3326728045940399 1.082453966140747 0.8409328460693359 0 0 0
0.33311355113983154 1.0402144193649292 0.8138208389282227 0 0 0
0.33641934394836426 1.03654146194458 0.8271398544311523 0 0 0
0.3365788161754608 1.0413790941238403 0.8224287033081055 0 0 0
0.33751294016838074 1.0354701280593872 0.8368892669677734 0 0 0
0.4177231788635254 1.236923098564148 0.9891233444213867 0 0 0
