ply
format ascii 1.0
element vertex 441
property float x
property float y
property float z
property uchar red
property uchar green
property uchar blue
end_header
-1.0100164413452148 1.2135484218597412 0.10428619384765625 0 0 0
-0.9657461643218994 1.2398402690887451 0.0 0 0 0
-1.0125707387924194 1.0488097667694092 0.8916473388671875 0 0 0
-0.937391459941864 0.765718400478363 0.39502429962158203 0 0 0
-0.9396113157272339 0.7525944709777832 0.4356374740600586 0 0 0
-0.9285622835159302 0.7663190960884094 0.39893245697021484 0 0 0
-0.92970210313797 0.7534376382827759 0.4154481887817383 0 0 0
-0.92970210313797 0.7534376382827759 0.4154481887817383 0 0 0
-0.9284052848815918 0.7423598170280457 0.4693288803100586 0 0 0
-0.928641140460968 0.7397300601005554 0.47856807708740234 0 0 0
-0.9151458740234375 0.7494449019432068 0.43206310272216797 0 0 0
-0.9056717157363892 0.7840802073478699 0.31176280975341797 0 0 0
-0.9102033376693726 0.7506073117256165 0.43492698669433594 0 0 0
-0.9427466988563538 0.6660718321800232 0.889500617980957 0 0 0
-0.9418652653694153 0.6627987027168274 0.9053945541381836 0 0 0
-0.9050527811050415 0.7481740117073059 0.4450502395629883 0 0 0
-0.9011598229408264 0.7542288899421692 0.4034557342529297 0 0 0
-0.8955215811729431 0.7658272385597229 0.38242340087890625 0 0 0
-0.8918746709823608 0.770391047000885 0.3313579559326172 0 0 0
-0.8848329782485962 0.7757434844970703 0.3222990036010742 0 0 0
-0.8906549215316772 0.7541812062263489 0.41532325744628906 0 0 0
-0.8740423917770386 0.7730257511138916 0.3527860641479492 0 0 0
-0.9214507937431335 0.6307704448699951 1.0547552108764648 0 0 0
-0.9214507937431335 0.6307704448699951 1.0547552108764648 0 0 0
-0.8838137984275818 1.0467541217803955 0.7163000106811523 0 0 0
-0.8698357939720154 0.7475040555000305 0.4452095031738281 0 0 0
-0.866228461265564 0.7555469870567322 0.4163789749145508 0 0 0
-0.866228461265564 0.7555469870567322 0.4163789749145508 0 0 0
-0.863555371761322 0.7658577561378479 0.41213130950927734 0 0 0
-0.8560119271278381 0.755401611328125 0.4228487014770508 0 0 0
-0.8532881140708923 0.7538822889328003 0.44408607482910156 0 0 0
-0.8513166308403015 0.7511469721794128 0.44183349609375 0 0 0
-0.9041869044303894 0.5729475617408752 1.3690967559814453 0 0 0
-0.8363375663757324 0.7663756608963013 0.4079437255859375 0 0 0
-0.8378716111183167 0.7542270421981812 0.43412303924560547 0 0 0
-0.8045700192451477 1.2374200820922852 0.09377288818359375 0 0 0
-0.8338546752929688 0.7639052271842957 0.43011951446533203 0 0 0
-0.832513153553009 0.7662913799285889 0.4262409210205078 0 0 0
-0.8289047479629517 0.756166398525238 0.4390144348144531 0 0 0
-0.8435645699501038 0.7014489769935608 0.7228994369506836 0 0 0
-0.8376012444496155 1.0441961288452148 0.7422361373901367 0 0 0
-0.8210989832878113 0.7674106359481812 0.4105682373046875 0 0 0
-0.80826735496521 0.7708975672721863 0.37595081329345703 0 0 0
-0.8413427472114563 0.669048547744751 0.8827505111694336 0 0 0
-0.8091195821762085 0.7615578770637512 0.4285287857055664 0 0 0
-0.8086207509040833 0.7559374570846558 0.4382038116455078 0 0 0
-0.8026347160339355 0.776252806186676 0.37604522705078125 0 0 0
-0.8021793961524963 0.7729333639144897 0.3838376998901367 0 0 0
-0.8089140057563782 0.738987386226654 0.5211973190307617 0 0 0
-0.799069881439209 0.811359703540802 0.4296245574951172 0 0 0
-0.7957979440689087 0.7727810740470886 0.3896522521972656 0 0 0
-0.8101361989974976 1.0356624126434326 0.7418365478515625 0 0 0
-0.8179692625999451 0.6932499408721924 0.7723817825317383 0 0 0
-0.7900492548942566 0.7768362164497375 0.3697376251220703 0 0 0
-0.793470561504364 0.7567936182022095 0.44081974029541016 0 0 0
-0.8142146468162537 0.6930204033851624 0.7706232070922852 0 0 0
-0.7912747263908386 0.7648827433586121 0.4369516372680664 0 0 0
-0.7889029383659363 0.7601667046546936 0.4340343475341797 0 0 0
-0.7848461270332336 0.7560642957687378 0.43889427185058594 0 0 0
-0.793579638004303 1.0410547256469727 0.764348030090332 0 0 0
-0.793579638004303 1.0410547256469727 0.764348030090332 0 0 0
-0.7949114441871643 1.041155219078064 0.8046598434448242 0 0 0
-0.7949114441871643 1.041155219078064 0.8046598434448242 0 0 0
-0.7776711583137512 0.7621867656707764 0.44937801361083984 0 0 0
-0.7776711583137512 0.7621867656707764 0.44937801361083984 0 0 0
-0.7878595590591431 1.0442644357681274 0.7660207748413086 0 0 0
-0.7735258340835571 0.7559509873390198 0.4445037841796875 0 0 0
-0.7704012989997864 0.7497785687446594 0.46129894256591797 0 0 0
-0.7704012989997864 0.7497785687446594 0.46129894256591797 0 0 0
-0.7676173448562622 0.7625867128372192 0.46226024627685547 0 0 0
-0.7788718342781067 1.0435667037963867 0.763453483581543 0 0 0
-0.7732546329498291 1.025712013244629 0.7452535629272461 0 0 0
-0.7611761689186096 0.7316091656684875 0.5881814956665039 0 0 0
-0.7462638020515442 0.7692509293556213 0.3976926803588867 0 0 0
-0.7469930052757263 0.7571808099746704 0.4515562057495117 0 0 0
-0.7448679208755493 0.7620983123779297 0.4537525177001953 0 0 0
-0.7436230182647705 0.7554694414138794 0.46886444091796875 0 0 0
-0.767412006855011 0.6739931702613831 0.889714241027832 0 0 0
-0.7354276776313782 0.7832460999488831 0.3881216049194336 0 0 0
-0.7515304684638977 1.047297477722168 0.7827167510986328 0 0 0
-0.7515304684638977 1.047297477722168 0.7827167510986328 0 0 0
-0.7403026819229126 0.7493467926979065 0.49681663513183594 0 0 0
-0.7417310476303101 0.7446675896644592 0.5242776870727539 0 0 0
-0.7378977537155151 0.7551720142364502 0.4723014831542969 0 0 0
-0.7295241951942444 0.760628879070282 0.44026947021484375 0 0 0
-0.7413753271102905 1.050379753112793 0.7783527374267578 0 0 0
-0.7413753271102905 1.050379753112793 0.7783527374267578 0 0 0
-0.7195925116539001 0.7705569863319397 0.43433666229248047 0 0 0
-0.7131014466285706 0.7727295160293579 0.4196300506591797 0 0 0
-0.7116170525550842 0.7667915225028992 0.4606189727783203 0 0 0
-0.7048251628875732 0.7730152010917664 0.4357728958129883 0 0 0
-0.7040420770645142 0.7445154786109924 0.5350570678710938 0 0 0
-0.6955087184906006 0.7688077092170715 0.4416007995605469 0 0 0
-0.7163164615631104 0.6852126121520996 0.8451776504516602 0 0 0
-0.6919164657592773 0.7794091105461121 0.4259824752807617 0 0 0
-0.6938202381134033 0.7612361311912537 0.4678659439086914 0 0 0
-0.6872825026512146 0.7619454264640808 0.47470664978027344 0 0 0
-0.6771313548088074 0.7689588069915771 0.44744873046875 0 0 0
-0.673583984375 0.7607991099357605 0.47221946716308594 0 0 0
-0.664892315864563 0.7675274610519409 0.46685314178466797 0 0 0
-0.6656841039657593 0.756438136100769 0.48161983489990234 0 0 0
-0.669944703578949 1.0555906295776367 0.8156013488769531 0 0 0
-0.6555722951889038 0.7649009227752686 0.47835826873779297 0 0 0
-0.6515592336654663 0.7669199705123901 0.45494842529296875 0 0 0
-0.6437965035438538 0.7640001773834229 0.4809904098510742 0 0 0
-0.6369478702545166 0.7677274942398071 0.4788360595703125 0 0 0
-0.6352877616882324 0.7741553783416748 0.4585256576538086 0 0 0
-0.6319957971572876 0.7717480063438416 0.4612131118774414 0 0 0
-0.6326032280921936 0.7647360563278198 0.4913005828857422 0 0 0
-0.6285286545753479 0.7687121033668518 0.47015857696533203 0 0 0
-0.6475027799606323 0.6880104541778564 0.853118896484375 0 0 0
-0.6245107054710388 0.7729523777961731 0.4654664993286133 0 0 0
-0.6214752793312073 0.7689571976661682 0.4824800491333008 0 0 0
-0.6366010308265686 0.6869558095932007 0.8727092742919922 0 0 0
-0.6349982023239136 0.6887207627296448 0.8609161376953125 0 0 0
-0.6156607866287231 0.7611909508705139 0.4884214401245117 0 0 0
-0.6160929203033447 0.7593787312507629 0.49881839752197266 0 0 0
-0.6188102960586548 1.053088903427124 0.8369054794311523 0 0 0
-0.6261121034622192 0.6861723065376282 0.8813343048095703 0 0 0
-0.6010225415229797 0.7586878538131714 0.5057191848754883 0 0 0
-0.6010225415229797 0.7586878538131714 0.5057191848754883 0 0 0
-0.6165803670883179 0.6890584826469421 0.8600826263427734 0 0 0
-0.5929458141326904 0.7662084102630615 0.48670005798339844 0 0 0
-0.5842625498771667 0.7657607793807983 0.4994010925292969 0 0 0
-0.592668354511261 0.6900026798248291 0.8697700500488281 0 0 0
-0.5664235353469849 0.7649573087692261 0.5061559677124023 0 0 0
-0.5790560245513916 0.7089880108833313 0.777583122253418 0 0 0
-0.5797165632247925 0.6784207224845886 0.9291105270385742 0 0 0
-0.5597032308578491 0.7596376538276672 0.5147418975830078 0 0 0
-0.5786294341087341 0.681320309638977 0.9400901794433594 0 0 0
-0.5539610981941223 0.7729981541633606 0.49167537689208984 0 0 0
-0.5581187009811401 0.8539435863494873 0.6210947036743164 0 0 0
-0.5484969019889832 0.7545773983001709 0.5534276962280273 0 0 0
-0.548516035079956 0.7498558163642883 0.5819177627563477 0 0 0
-0.5442497134208679 0.757915735244751 0.5375881195068359 0 0 0
-0.544873058795929 0.7531997561454773 0.5574378967285156 0 0 0
-0.544873058795929 0.7531997561454773 0.5574378967285156 0 0 0
-0.53868168592453 0.7647019028663635 0.5115070343017578 0 0 0
-0.5391629338264465 0.7615256905555725 0.5280017852783203 0 0 0
-0.5430559515953064 0.6826497912406921 0.9298725128173828 0 0 0
-0.5300425887107849 0.7639725804328918 0.7147464752197266 0 0 0
-0.5222758650779724 0.7607377171516418 0.5392131805419922 0 0 0
-0.5155808329582214 0.755357027053833 0.5777320861816406 0 0 0
-0.5243043899536133 0.6556006669998169 1.0316314697265625 0 0 0
-0.49743589758872986 0.7599801421165466 0.5612459182739258 0 0 0
-0.49743589758872986 0.7599801421165466 0.5612459182739258 0 0 0
-0.4892483353614807 0.7593015432357788 0.5469350814819336 0 0 0
-0.48975062370300293 0.7510607838630676 0.5972929000854492 0 0 0
-0.48799365758895874 0.7545602321624756 0.58404541015625 0 0 0
-0.4859122037887573 0.7578778266906738 0.5689783096313477 0 0 0
-0.47702735662460327 0.7496882677078247 0.6100645065307617 0 0 0
-0.4745001494884491 0.7600425481796265 0.5562143325805664 0 0 0
-0.4755667448043823 0.7542257905006409 0.6022014617919922 0 0 0
-0.4724928140640259 0.7602001428604126 0.5659856796264648 0 0 0
-0.4736522436141968 0.7021653652191162 0.8669748306274414 0 0 0
-0.45489758253097534 0.7542915940284729 0.6036901473999023 0 0 0
-0.4527716338634491 0.7570404410362244 0.5915737152099609 0 0 0
-0.44887927174568176 0.7539874911308289 0.6052846908569336 0 0 0
-0.4499218165874481 1.0502731800079346 0.91455078125 0 0 0
-0.4381366968154907 0.763035774230957 0.5708208084106445 0 0 0
-0.44559356570243835 0.718166172504425 0.7917747497558594 0 0 0
-0.43774232268333435 1.0449031591415405 0.9001970291137695 0 0 0
-0.42649930715560913 0.7688670754432678 0.5157022476196289 0 0 0
-0.424373060464859 0.7593860626220703 0.594329833984375 0 0 0
-0.4314785599708557 0.6955167651176453 0.9270229339599609 0 0 0
-0.42091965675354004 0.7116135358810425 0.8408565521240234 0 0 0
-0.4039662778377533 0.7563903331756592 0.6141757965087891 0 0 0
-0.405501127243042 0.7331849336624146 0.7473297119140625 0 0 0
-0.3939002454280853 0.7633603811264038 0.5922164916992188 0 0 0
-0.3791431188583374 0.7620453238487244 0.6067075729370117 0 0 0
-0.4315139353275299 0.21194693446159363 2.178243637084961 0 0 0
-0.371802419424057 0.7662579417228699 0.6129903793334961 0 0 0
-0.3665362298488617 0.7561309933662415 0.6444816589355469 0 0 0
-0.34885549545288086 0.7645374536514282 0.6140508651733398 0 0 0
-0.34827920794487 0.7510480880737305 0.6740512847900391 0 0 0
-0.3452868163585663 0.7619350552558899 0.6287002563476562 0 0 0
-0.34461307525634766 0.7535041570663452 0.6762838363647461 0 0 0
-0.36371153593063354 0.6194455623626709 1.376297950744629 0 0 0
-0.3409755825996399 0.7683426141738892 0.6277551651000977 0 0 0
-0.34075936675071716 0.7659274935722351 0.6258630752563477 0 0 0
-0.34317609667778015 0.731502890586853 0.7840452194213867 0 0 0
-0.3370097577571869 0.7690148949623108 0.626800537109375 0 0 0
-0.3370097577571869 0.7690148949623108 0.626800537109375 0 0 0
-0.35964176058769226 0.6193292737007141 1.3931121826171875 0 0 0
-0.3470636010169983 0.678240954875946 1.0761499404907227 0 0 0
-0.3342297673225403 0.7557192444801331 0.6695308685302734 0 0 0
-0.35496729612350464 0.6227951049804688 1.3811511993408203 0 0 0
-0.3278491795063019 0.7638929486274719 0.6362161636352539 0 0 0
-0.3443024158477783 0.6449136137962341 1.253305435180664 0 0 0
-0.3443024158477783 0.6449136137962341 1.253305435180664 0 0 0
-0.3379814028739929 0.6799600720405579 1.064265251159668 0 0 0
-0.31838738918304443 0.7675467729568481 0.6400012969970703 0 0 0
-0.3170716464519501 0.7566559314727783 0.674403190612793 0 0 0
-0.332550585269928 0.6389970183372498 1.2993507385253906 0 0 0
-0.31566765904426575 0.7253720760345459 0.8419322967529297 0 0 0
-0.311568945646286 0.7260214686393738 0.8410444259643555 0 0 0
-0.3086227774620056 0.7313492298126221 0.8129339218139648 0 0 0
-0.3123084306716919 0.6998806595802307 0.9717597961425781 0 0 0
-0.30355918407440186 0.7561028599739075 0.6808223724365234 0 0 0
-0.2969750165939331 0.7674868106842041 0.6484460830688477 0 0 0
-0.2943514585494995 0.758192241191864 0.6926898956298828 0 0 0
-0.30988240242004395 0.5572183132171631 1.7634735107421875 0 0 0
-0.28600478172302246 0.7155570387840271 0.9053192138671875 0 0 0
-0.28600478172302246 0.7155570387840271 0.9053192138671875 0 0 0
-0.29204514622688293 0.6681698560714722 1.1695747375488281 0 0 0
-0.28970202803611755 0.5959721803665161 1.5654373168945312 0 0 0
-0.28970202803611755 0.5959721803665161 1.5654373168945312 0 0 0
-0.27960968017578125 0.6190179586410522 1.4522438049316406 0 0 0
-0.25715553760528564 0.769069492816925 0.6738510131835938 0 0 0
-0.2550906538963318 0.7665020823478699 0.6789960861206055 0 0 0
-0.2550906538963318 0.7665020823478699 0.6789960861206055 0 0 0
-0.253592848777771 0.7711977362632751 0.6550607681274414 0 0 0
-0.24665813148021698 0.7652702331542969 0.6949377059936523 0 0 0
-0.25064247846603394 0.721036970615387 0.9044666290283203 0 0 0
-0.26114127039909363 0.6178260445594788 1.467066764831543 0 0 0
-0.23479142785072327 0.7672803997993469 0.672663688659668 0 0 0
-0.2367188185453415 0.7187190651893616 0.9231700897216797 0 0 0
-0.22792130708694458 0.7624375224113464 0.6994352340698242 0 0 0
-0.22033633291721344 0.7650567293167114 0.7001743316650391 0 0 0
-0.21579009294509888 0.7664802670478821 0.6965904235839844 0 0 0
-0.22520330548286438 0.6404600739479065 1.3730993270874023 0 0 0
-0.22520330548286438 0.6404600739479065 1.3730993270874023 0 0 0
-0.2230321317911148 0.6471238136291504 1.3271942138671875 0 0 0
-0.20596008002758026 0.7675689458847046 0.6957998275756836 0 0 0
-0.20129503309726715 0.7696241736412048 0.6812801361083984 0 0 0
-0.18808524310588837 0.7687807679176331 0.6957798004150391 0 0 0
-0.16780497133731842 0.7637113332748413 0.7456493377685547 0 0 0
-0.16662077605724335 0.7593790292739868 0.7607011795043945 0 0 0
-0.1657065600156784 0.7722481489181519 0.7158403396606445 0 0 0
-0.16693489253520966 0.7073071599006653 1.0353755950927734 0 0 0
-0.15883778035640717 0.7703724503517151 0.7404298782348633 0 0 0
-0.15322348475456238 1.0516588687896729 1.0638427734375 0 0 0
-0.1516343057155609 0.7600738406181335 0.7684764862060547 0 0 0
-0.15005695819854736 0.7725130319595337 0.7356224060058594 0 0 0
-0.14768265187740326 0.7289009094238281 0.930816650390625 0 0 0
-0.14180421829223633 1.0587824583053589 1.0418052673339844 0 0 0
-0.1502625048160553 0.625262975692749 1.5074892044067383 0 0 0
-0.1502625048160553 0.625262975692749 1.5074892044067383 0 0 0
-0.1502625048160553 0.625262975692749 1.5074892044067383 0 0 0
-0.13527598977088928 0.7594742178916931 0.7837648391723633 0 0 0
-0.13264361023902893 0.7687357664108276 0.7503662109375 0 0 0
-0.131720170378685 0.7391935586929321 0.8908805847167969 0 0 0
-0.13137997686862946 0.7119622230529785 1.0394248962402344 0 0 0
-0.13137997686862946 0.7119622230529785 1.0394248962402344 0 0 0
-0.11246129125356674 0.7593614459037781 0.7895679473876953 0 0 0
-0.10669171810150146 0.7659002542495728 0.7657365798950195 0 0 0
-0.1045716181397438 0.7750610113143921 0.7577924728393555 0 0 0
-0.10144591331481934 0.7670968174934387 0.7748327255249023 0 0 0
-0.09772221744060516 0.7333104610443115 0.9412603378295898 0 0 0
-0.09368941187858582 0.73447585105896 0.9369897842407227 0 0 0
-0.08603257685899734 0.7660271525382996 0.7780647277832031 0 0 0
-0.0859193503856659 0.7692448496818542 0.7728805541992188 0 0 0
-0.08123791217803955 0.7704328894615173 0.7682762145996094 0 0 0
-0.07571621239185333 0.7790781855583191 0.7444286346435547 0 0 0
-0.06792258471250534 0.7712886333465576 0.7751226425170898 0 0 0
-0.06111355870962143 0.7687922716140747 0.7907114028930664 0 0 0
-0.05356796830892563 0.7709737420082092 0.7847585678100586 0 0 0
-0.05353793129324913 0.7671821117401123 0.7970046997070312 0 0 0
-0.05433345213532448 0.6987960934638977 1.167668342590332 0 0 0
-0.047854162752628326 0.7682375311851501 0.8067331314086914 0 0 0
-0.04267758131027222 0.7626603245735168 0.8286056518554688 0 0 0
-0.0400971993803978 0.7301639318466187 0.996638298034668 0 0 0
-0.03990938141942024 0.7257331013679504 1.0281553268432617 0 0 0
0.004806813783943653 0.7712072730064392 0.816777229309082 0 0 0
0.008066597394645214 0.7542250752449036 0.9068336486816406 0 0 0
0.07345070689916611 0.7728103399276733 0.861210823059082 0 0 0
0.08628635853528976 0.7726148962974548 0.864903450012207 0 0 0
0.093194380402565 0.7541780471801758 0.9753437042236328 0 0 0
0.09419656544923782 0.7575187683105469 0.953618049621582 0 0 0
0.09636297076940536 0.7641701698303223 0.9247817993164062 0 0 0
0.099900983273983 0.7510737180709839 0.9887638092041016 0 0 0
0.10706824064254761 0.774267315864563 0.9013538360595703 0 0 0
0.10730135440826416 0.7819972634315491 0.8575801849365234 0 0 0
0.11319663375616074 0.7798757553100586 0.8955774307250977 0 0 0
0.11719195544719696 0.7828493714332581 0.9007091522216797 0 0 0
0.12469475716352463 1.0684703588485718 1.203073501586914 0 0 0
0.1226474717259407 0.7865263819694519 0.9049510955810547 0 0 0
0.12648119032382965 0.7703688740730286 0.9069843292236328 0 0 0
0.1273515522480011 0.7835474014282227 0.9473123550415039 0 0 0
0.12777259945869446 0.7871686220169067 0.9238214492797852 0 0 0
0.14043180644512177 0.7856780290603638 0.9139747619628906 0 0 0
0.14133551716804504 0.7753010988235474 0.9217023849487305 0 0 0
0.14399413764476776 0.7817778587341309 0.9274606704711914 0 0 0
0.15619148313999176 1.0675294399261475 1.2557544708251953 0 0 0
0.1500590741634369 0.7825906276702881 0.9225234985351562 0 0 0
0.157327800989151 0.7896264791488647 0.9071159362792969 0 0 0
0.15950936079025269 0.773605465888977 0.9443464279174805 0 0 0
0.16089744865894318 0.776463508605957 0.9270620346069336 0 0 0
0.16501617431640625 0.7811650037765503 0.9295330047607422 0 0 0
0.16501617431640625 0.7811650037765503 0.9295330047607422 0 0 0
0.16836196184158325 0.7740177512168884 0.928990364074707 0 0 0
0.1688394695520401 0.7858336567878723 0.929814338684082 0 0 0
0.17204849421977997 0.7752421498298645 0.9429702758789062 0 0 0
0.17883989214897156 0.787913978099823 0.9303035736083984 0 0 0
0.1808025985956192 0.7803724408149719 0.9429759979248047 0 0 0
0.18944934010505676 0.779956042766571 0.9486064910888672 0 0 0
0.18983349204063416 0.7738535404205322 0.9498224258422852 0 0 0
0.1902155727148056 0.77027428150177 0.9580621719360352 0 0 0
0.19228458404541016 0.7845854163169861 0.9482278823852539 0 0 0
0.19251906871795654 0.7683786749839783 0.9636001586914062 0 0 0
0.1953902393579483 0.7329493165016174 1.1531009674072266 0 0 0
0.19736462831497192 0.7885675430297852 0.9492292404174805 0 0 0
0.20769548416137695 1.0726922750473022 1.266733169555664 0 0 0
0.19882753491401672 0.7794046401977539 0.9536018371582031 0 0 0
0.20037969946861267 0.7857088446617126 0.9539546966552734 0 0 0
0.21846875548362732 1.0695604085922241 1.2855520248413086 0 0 0
0.21846875548362732 1.0695604085922241 1.2855520248413086 0 0 0
0.2183433622121811 0.7851912379264832 0.9615364074707031 0 0 0
0.2207641750574112 0.734848141670227 1.1662006378173828 0 0 0
0.22136738896369934 0.7798687815666199 0.9670467376708984 0 0 0
0.22288993000984192 0.7764062285423279 0.9715919494628906 0 0 0
0.22309918701648712 0.788384199142456 0.952275276184082 0 0 0
0.2295525074005127 0.7917115688323975 0.9649572372436523 0 0 0
0.23327720165252686 0.7728263139724731 0.9919605255126953 0 0 0
0.23327720165252686 0.7728263139724731 0.9919605255126953 0 0 0
0.23664039373397827 0.771990180015564 0.9931850433349609 0 0 0
0.24082110822200775 0.7740369439125061 0.9866533279418945 0 0 0
0.24400994181632996 0.865882933139801 1.0512657165527344 0 0 0
0.24364213645458221 0.7709884643554688 1.001561164855957 0 0 0
0.24364042282104492 0.7840453386306763 0.9784097671508789 0 0 0
0.2553601861000061 1.076686978340149 1.269369125366211 0 0 0
0.24956686794757843 0.7702614068984985 1.0065174102783203 0 0 0
0.2498358190059662 0.7884516716003418 0.9785614013671875 0 0 0
0.2654198408126831 1.0752631425857544 1.246708869934082 0 0 0
0.25835227966308594 0.7700868844985962 1.0138177871704102 0 0 0
0.25835227966308594 0.7700868844985962 1.0138177871704102 0 0 0
0.2586638629436493 0.7817807197570801 0.9927854537963867 0 0 0
0.2699907422065735 1.071553349494934 1.267852783203125 0 0 0
0.261465460062027 0.775909960269928 0.9974355697631836 0 0 0
0.261465460062027 0.775909960269928 0.9974355697631836 0 0 0
0.26336267590522766 0.7698193788528442 1.0199317932128906 0 0 0
0.26978787779808044 0.696182370185852 1.411569595336914 0 0 0
0.27293071150779724 0.7033402323722839 1.3765411376953125 0 0 0
0.27776479721069336 1.0671989917755127 1.279585838317871 0 0 0
0.27766335010528564 1.0740305185317993 1.266221046447754 0 0 0
0.2746923863887787 0.6926999092102051 1.4429702758789062 0 0 0
0.27018144726753235 0.7722234129905701 1.008371353149414 0 0 0
0.2817809283733368 1.067205786705017 1.2828922271728516 0 0 0
0.27983158826828003 0.7024747133255005 1.3945503234863281 0 0 0
0.2857666313648224 1.071321964263916 1.280278205871582 0 0 0
0.2779636085033417 0.7733108401298523 1.016129493713379 0 0 0
0.2787787914276123 0.7674193978309631 1.0322895050048828 0 0 0
0.2857319116592407 0.71529221534729 1.3292770385742188 0 0 0
0.2916105091571808 1.072084903717041 1.2726964950561523 0 0 0
0.2943063974380493 1.0715501308441162 1.276564598083496 0 0 0
0.2986562252044678 1.0687745809555054 1.285792350769043 0 0 0
0.2895120084285736 0.7795498967170715 1.021998405456543 0 0 0
0.30321669578552246 1.0751549005508423 1.2644739151000977 0 0 0
0.2956133782863617 0.7844405770301819 1.010909080505371 0 0 0
0.3083634376525879 1.0717257261276245 1.2772331237792969 0 0 0
0.30071738362312317 0.7499338984489441 1.1475372314453125 0 0 0
0.29900574684143066 0.7713088393211365 1.0423641204833984 0 0 0
0.3109269440174103 1.0681899785995483 1.2838973999023438 0 0 0
0.3109269440174103 1.0681899785995483 1.2838973999023438 0 0 0
0.3006584346294403 0.7799050211906433 1.0229663848876953 0 0 0
0.3007296025753021 0.7843344211578369 1.0170011520385742 0 0 0
0.30130067467689514 0.7833673357963562 1.0059499740600586 0 0 0
0.30784475803375244 0.7472348213195801 1.1802940368652344 0 0 0
0.31603944301605225 1.0690230131149292 1.2890710830688477 0 0 0
0.30644962191581726 0.7686100006103516 1.0612964630126953 0 0 0
0.30902034044265747 0.7633423209190369 1.0776805877685547 0 0 0
0.32165399193763733 1.064602255821228 1.3066797256469727 0 0 0
0.3113985061645508 0.7681316137313843 1.0569448471069336 0 0 0
0.3131319582462311 0.7890145182609558 1.0198249816894531 0 0 0
0.3149423599243164 0.7775994539260864 1.0399169921875 0 0 0
0.31549280881881714 0.7864238619804382 1.0243501663208008 0 0 0
0.32768189907073975 1.0669883489608765 1.3105316162109375 0 0 0
0.3175565302371979 0.7772982716560364 1.0433788299560547 0 0 0
0.3203912079334259 0.7754097580909729 1.052347183227539 0 0 0
0.3205174505710602 0.7830256223678589 1.0306320190429688 0 0 0
0.3238849937915802 0.7797938585281372 1.0358200073242188 0 0 0
0.3250478506088257 0.776337206363678 1.0311861038208008 0 0 0
0.32707229256629944 0.7853826880455017 1.0328397750854492 0 0 0
0.340337336063385 1.0636643171310425 1.332362174987793 0 0 0
0.3360835015773773 0.7260072827339172 1.318699836730957 0 0 0
0.3316985070705414 0.771044909954071 1.0707979202270508 0 0 0
0.3349929451942444 0.7729044556617737 1.0684070587158203 0 0 0
0.335686057806015 0.7839528918266296 1.0328960418701172 0 0 0
0.3387930989265442 0.7763478755950928 1.0713796615600586 0 0 0
0.3417052924633026 0.785695493221283 1.0235614776611328 0 0 0
0.34295645356178284 0.7778366208076477 1.0669145584106445 0 0 0
0.35482117533683777 1.060080885887146 1.3492679595947266 0 0 0
0.3426205515861511 0.7934660911560059 1.0294370651245117 0 0 0
0.3430841863155365 0.7897562980651855 1.0400943756103516 0 0 0
0.3597053289413452 1.0685946941375732 1.3434991836547852 0 0 0
0.3597053289413452 1.0685946941375732 1.3434991836547852 0 0 0
0.3610251247882843 1.0605748891830444 1.3552703857421875 0 0 0
0.3610251247882843 1.0605748891830444 1.3552703857421875 0 0 0
0.3519214391708374 0.7851572632789612 1.0373849868774414 0 0 0
0.35436415672302246 0.7808793187141418 1.064030647277832 0 0 0
0.3549771308898926 0.7788118124008179 1.065159797668457 0 0 0
0.3583708703517914 0.7737301588058472 1.0887079238891602 0 0 0
0.36733537912368774 0.7199117541313171 1.3749523162841797 0 0 0
0.3619212508201599 0.7790824174880981 1.0627164840698242 0 0 0
0.3628304898738861 0.7835214138031006 1.0702238082885742 0 0 0
0.37131255865097046 0.7183815240859985 1.3844537734985352 0 0 0
0.37131255865097046 0.7183815240859985 1.3844537734985352 0 0 0
0.3674222230911255 0.7764182686805725 1.0843849182128906 0 0 0
0.3678770959377289 0.7850860357284546 1.057032585144043 0 0 0
0.3764772415161133 0.7827267646789551 1.0662498474121094 0 0 0
0.3819548785686493 0.7627966403961182 1.1574506759643555 0 0 0
0.38064131140708923 0.7851471900939941 1.0680227279663086 0 0 0
0.3829576373100281 0.7827903628349304 1.0807342529296875 0 0 0
0.3924511671066284 0.7785685062408447 1.0800151824951172 0 0 0
0.3987669348716736 0.7892834544181824 1.0950050354003906 0 0 0
0.4038718342781067 0.784138023853302 1.0852556228637695 0 0 0
0.42291703820228577 1.0373950004577637 1.3622188568115234 0 0 0
0.4337855875492096 0.9161162972450256 1.2353925704956055 0 0 0
0.4450283348560333 1.022613286972046 1.3636798858642578 0 0 0
0.44591081142425537 1.0028108358383179 1.3299894332885742 0 0 0
0.450611412525177 1.0218504667282104 1.3791637420654297 0 0 0
0.44085901975631714 0.7853999137878418 1.1130857467651367 0 0 0
0.45423224568367004 1.0226097106933594 1.383061408996582 0 0 0
0.45248842239379883 0.9810882806777954 1.3139972686767578 0 0 0
0.45373931527137756 0.9919267892837524 1.3339529037475586 0 0 0
0.44957593083381653 0.9151881337165833 1.2411537170410156 0 0 0
0.4486790597438812 0.8788694739341736 1.2007570266723633 0 0 0
0.44542574882507324 0.7843931913375854 1.1169366836547852 0 0 0
0.45118099451065063 0.7459166049957275 1.3259687423706055 0 0 0
0.456296443939209 0.9924233555793762 1.3374137878417969 0 0 0
0.46004459261894226 0.9665040969848633 1.3046207427978516 0 0 0
0.46446412801742554 0.9798606634140015 1.3301763534545898 0 0 0
0.46235939860343933 0.7400051355361938 1.392674446105957 0 0 0
0.46237143874168396 0.7400013208389282 1.3923139572143555 0 0 0
0.4608660340309143 0.880292534828186 1.2177438735961914 0 0 0
0.4648043215274811 0.9501010775566101 1.2978696823120117 0 0 0
0.46106383204460144 0.8591678142547607 1.1929645538330078 0 0 0
0.46664416790008545 0.9439769387245178 1.3000822067260742 0 0 0
0.4639192819595337 0.8685330748558044 1.1977615356445312 0 0 0
0.4670673906803131 0.877124011516571 1.2284345626831055 0 0 0
0.46612048149108887 0.853192925453186 1.1899843215942383 0 0 0
0.46339309215545654 0.8053831458091736 1.1310606002807617 0 0 0
0.4713572859764099 0.8691158890724182 1.2184429168701172 0 0 0
0.4725417196750641 0.8601564764976501 1.2039556503295898 0 0 0
0.47194480895996094 0.8470991849899292 1.1856355667114258 0 0 0
0.4737910330295563 0.8520706295967102 1.2029848098754883 0 0 0
0.47246795892715454 0.7892882823944092 1.1316595077514648 0 0 0
0.4776606261730194 0.7834210991859436 1.164896011352539 0 0 0
0.47792747616767883 0.7908138036727905 1.1542510986328125 0 0 0
0.4795253872871399 0.7815439701080322 1.1887788772583008 0 0 0
0.5972975492477417 0.7914666533470154 2.9739513397216797 0 0 0
